# .PCD v0.7 - Point Cloud Data file format
VERSION 0.7
FIELDS x y z rgb
SIZE 4 4 4 4
TYPE F F F U
COUNT 1 1 1 1
WIDTH 637
HEIGHT 1
VIEWPOINT 0 0 0 1 0 0 0
POINTS 637
DATA ascii
0.15276729 0.044364601 0.75366664 4280359698
0.15695176 0.044253759 0.75380003 4280556562
0.16144773 0.044978458 0.75400001 4282199839
0.15269946 0.04731223 0.75333333 4280030735
0.15678471 0.047588151 0.75300002 4280819990
0.16223183 0.047619555 0.75349998 4281606418
0.16590255 0.04765135 0.75400001 4281475601
0.15342908 0.051215194 0.75400001 4280558103
0.15687752 0.052068558 0.75344443 4281017881
0.16208936 0.051875077 0.75387502 4281673239
0.15788388 0.055670012 0.75400001 4280688917
0.16055678 0.055670012 0.75400001 4281477144
0.15354966 0.023751831 0.75900006 4281803285
0.15793049 0.023287747 0.75849998 4282723859
0.15254027 0.027319036 0.75844449 4280882954
0.15775833 0.027330309 0.75875002 4281408516
0.15233913 0.032653213 0.75744444 4279832839
0.15775718 0.032662269 0.75766671 4280357892
0.16214843 0.033901207 0.75866669 4281211654
0.1490653 0.038101763 0.75900006 4280162574
0.1522053 0.037989944 0.75677782 4280228111
0.15754817 0.037983842 0.75666666 4280359695
0.16284172 0.038243223 0.757375 4281870614
0.1671546 0.038067114 0.75833338 4281803791
0.17047782 0.038972348 0.75850004 4281475086
0.1489671 0.042557471 0.75850004 4280688407
0.15169068 0.04223913 0.75600004 4280557078
0.15720116 0.04191561 0.75500005 4280820247
0.16266245 0.042389542 0.75550008 4281409807
0.16740215 0.042459577 0.75674999 4281277965
0.17184493 0.042720132 0.75820005 4281212686
0.14873797 0.046967894 0.75733334 4280491542
0.15065914 0.04731499 0.75575006 4280491800
0.16433831 0.045038115 0.75500005 4281342215
0.1676276 0.046422847 0.75575006 4283910455
0.17215841 0.047008455 0.75800008 4285490772
0.17597143 0.047070473 0.75900006 4285228629
0.14893436 0.052406412 0.75833338 4280228366
0.15159507 0.052519698 0.75628573 4280360210
0.16433831 0.05395956 0.75500005 4281146381
0.16719967 0.052233648 0.75583339 4282791971
0.17148617 0.051680334 0.75820005 4283778865
0.17597143 0.050657954 0.75900006 4284832842
0.1490653 0.056039181 0.75900006 4280030730
0.15254839 0.05748577 0.757375 4280491281
0.1570348 0.058071263 0.75542867 4280754196
0.1629128 0.057799388 0.75562507 4281015309
0.16736674 0.057353675 0.75740004 4282594085
0.15371294 0.061963577 0.75833338 4280753681
0.1576173 0.063048624 0.75700003 4281148436
0.16281511 0.062845655 0.75725001 4281673237
0.16700271 0.061420403 0.75900006 4283383605
0.15444653 0.065007888 0.75900006 4280293130
0.1579646 0.06677229 0.75866669 4280358663
0.16251837 0.06680163 0.75900006 4281344525
0.1536584 0.018491624 0.76400006 4281345832
0.15706365 0.018467421 0.76300001 4280819230
0.16268618 0.018491624 0.76400012 4282001438
0.16810286 0.018491624 0.76400006 4284432171
0.17833436 0.017889772 0.76400012 4287391304
0.18050519 0.018467421 0.76300001 4284694564
0.1489487 0.022974815 0.76300001 4280555279
0.15245475 0.021714628 0.7610001 4281146903
0.1567549 0.020679791 0.76150006 4281540889
0.16229907 0.021793574 0.76112509 4283577626
0.16773666 0.022053471 0.76233339 4285810713
0.17231552 0.022062985 0.7626667 4290086198
0.17686893 0.022295002 0.76287502 4293116816
0.18139641 0.02241083 0.76220006 4284431653
0.14810064 0.027676981 0.76212502 4280094983
0.16243987 0.027390772 0.76042861 4282984967
0.1676628 0.027447371 0.76200002 4283838214
0.17306529 0.027447373 0.76200002 4284429060
0.17756738 0.027447373 0.76200002 4283903245
0.18206947 0.027447375 0.76200002 4283841843
0.1477866 0.032835498 0.76166672 4279701510
0.16303183 0.031566244 0.76000005 4281934342
0.16749245 0.032815553 0.7612223 4281801473
0.17304033 0.032844815 0.76188892 4281999109
0.1776064 0.032857049 0.76216674 4282130700
0.18220246 0.032873556 0.7625556 4283581243
0.14695264 0.037351355 0.76200002 4279702022
0.16901885 0.036355857 0.76000005 4281211654
0.17328714 0.037929885 0.76071435 4281540108
0.17756736 0.037351944 0.76200002 4281803286
0.18210965 0.037359919 0.76216668 4284701010
0.14463061 0.043769438 0.76400006 4280094976
0.14682388 0.041817013 0.76133341 4280885525
0.17440717 0.041744173 0.76000005 4281672980
0.17729568 0.04178955 0.76083332 4282331171
0.18204316 0.041847922 0.76188892 4284044109
0.14463061 0.047380552 0.76400012 4281476113
0.14675921 0.0471945 0.7610001 4280491284
0.17742145 0.047169697 0.76060009 4285491547
0.18204047 0.047023661 0.76187503 4284309078
0.14463061 0.050991669 0.76400006 4281476883
0.14685583 0.052625243 0.76150006 4280425487
0.17368063 0.053472456 0.76075006 4284963140
0.17770109 0.053006303 0.76179999 4284832586
0.1815398 0.052354604 0.76280004 4284834134
0.14818455 0.058073815 0.76216668 4280753423
0.15105781 0.05970522 0.76000005 4280622097
0.16901885 0.05970522 0.76000005 4283580984
0.17239051 0.057436619 0.76166672 4284238908
0.17713065 0.056408346 0.76400006 4284896837
0.14975269 0.062605225 0.76250005 4280819216
0.15185526 0.062781222 0.76099998 4280687888
0.16864254 0.062781222 0.7610001 4283516475
0.17224091 0.06179804 0.76366669 4284305991
0.15240337 0.066862851 0.76225001 4280490508
0.15665038 0.068776123 0.76099998 4281082646
0.16183443 0.068685748 0.76000005 4281542935
0.16735755 0.066807851 0.76162505 4281936409
0.1536584 0.070852809 0.76400006 4281213718
0.15692538 0.072500914 0.76233333 4281542424
0.16218932 0.072437249 0.76166672 4281608213
0.16675785 0.072184071 0.76280004 4281541905
0.15817231 0.076269485 0.76400006 4282067996
0.16291954 0.076931804 0.76340002 4281672719
0.16618846 0.077122346 0.76350003 4281540874
0.15466402 0.014977893 0.76900005 4286018934
0.15785249 0.014243153 0.76860011 4285756274
0.16202849 0.012921469 0.76837504 4285953907
0.16716744 0.01314183 0.76800007 4285558633
0.17212895 0.013643177 0.76700002 4286611320
0.17668921 0.014919462 0.76600003 4289636777
0.14830321 0.018612644 0.76900005 4280489747
0.15220538 0.017488806 0.76760006 4282136632
0.15767963 0.016729746 0.76600003 4283846993
0.16311206 0.016729746 0.76600003 4285293659
0.16772024 0.017310547 0.76500005 4286080856
0.17238975 0.017439809 0.76540005 4286275657
0.17615722 0.017310547 0.76500005 4286537030
0.14375977 0.024064766 0.76900005 4281934600
0.14654602 0.021937834 0.76728576 4280686604
0.15024368 0.020323748 0.76500005 4280029458
0.14369746 0.027686721 0.76866674 4281342208
0.14550853 0.027147887 0.76625001 4280488965
0.14322644 0.03330728 0.76737505 4281079811
0.14500922 0.031212023 0.76600003 4280488451
0.14338273 0.037597034 0.76700002 4281080326
0.14320308 0.041916396 0.76725006 4281870352
0.1425399 0.047587667 0.76733333 4282066706
0.14343658 0.053023279 0.76728576 4281804305
0.18369022 0.053770296 0.76500005 4284176208
0.14375977 0.057686195 0.76900005 4281738255
0.14561187 0.057762865 0.76600003 4281344271
0.17804809 0.057914309 0.76600003 4284633670
0.18156978 0.057575446 0.76750004 4285161558
0.14700915 0.062067784 0.76700008 4281213456
0.17408735 0.062933646 0.7665 4284240712
0.1769695 0.061787121 0.76800001 4285029201
0.18010727 0.060412258 0.76900005 4285818205
0.14810918 0.067594528 0.76800007 4281147922
0.15034188 0.068278849 0.76550007 4281016338
0.17290851 0.06776502 0.76700008 4283647543
0.14921188 0.072225191 0.76900005 4281606932
0.15222047 0.073170841 0.76700002 4281476117
0.16832289 0.074561387 0.76500005 4281870873
0.1724408 0.072965063 0.76722229 4283647284
0.15304969 0.077415243 0.76820004 4281475863
0.15712571 0.077776343 0.76550007 4281278479
0.16244715 0.079533167 0.76500005 4281869071
0.16772024 0.078177236 0.76500005 4282133017
0.17235197 0.077458255 0.76683336 4283384115
0.17647251 0.078586005 0.76900005 4283121717
0.15420969 0.081766404 0.76900005 4281409811
0.15797724 0.082055211 0.76744449 4281475601
0.16314717 0.082823344 0.76616669 4282000398
0.16781881 0.082262054 0.76600003 4282132242
0.17233935 0.08198341 0.76677775 4283384626
0.17719945 0.082584225 0.76900005 4281937703
0.15844785 0.087402947 0.76862508 4281608214
0.16277601 0.087170623 0.76685715 4282001425
0.16706744 0.087615021 0.76650006 4282592531
0.17243975 0.087470718 0.76722229 4282461981
0.17719945 0.087309398 0.76900005 4282463018
0.18010727 0.085855499 0.76900005 4283122746
0.15829876 0.092216313 0.76900005 4281937180
0.16186279 0.093085155 0.76866674 4282133013
0.16724104 0.093044788 0.76833338 4283118619
0.17215745 0.092479624 0.76866674 4283186475
0.16229698 0.09748669 0.76900005 4282066448
0.16693129 0.097214088 0.76900005 4282789137
0.15729375 0.0095753185 0.77300006 4285033315
0.16242407 0.0095546721 0.7713334 4283849305
0.14998803 0.013228975 0.77300006 4286479998
0.15307103 0.012900109 0.77166671 4286743169
0.1568868 0.011372645 0.77100009 4284573024
0.14450754 0.018709458 0.77300006 4282066206
0.1478729 0.016545396 0.77150005 4283451464
0.15142207 0.015016847 0.77100003 4284572001
0.14249411 0.022334183 0.77200001 4283052561
0.13920692 0.02879421 0.77400005 4282393351
0.14146046 0.027782774 0.77133328 4282722566
0.13902706 0.032410666 0.77300006 4282000395
0.14048944 0.03232681 0.77100003 4281934344
0.13902706 0.036977734 0.77300006 4282066188
0.14036797 0.03684938 0.77033335 4282263310
0.1385248 0.042901192 0.77275008 4281934604
0.14030723 0.042293441 0.77000004 4282132237
0.13825941 0.047560461 0.77280003 4282065677
0.14030723 0.047752649 0.77000004 4282065933
0.13902706 0.052505769 0.77300006 4281868555
0.14058056 0.052404471 0.77149999 4282000398
0.13920692 0.05623208 0.77400005 4281605637
0.14152159 0.056975182 0.77166671 4281868556
0.14306845 0.062235553 0.77228576 4282066963
0.14576645 0.064130291 0.77000004 4281870613
0.17852174 0.064130291 0.77000004 4284174405
0.18195236 0.062854894 0.77219999 4284766543
0.14463218 0.06809327 0.77366668 4281739026
0.14595576 0.067859352 0.77099997 4281739026
0.17795844 0.067903362 0.77150005 4283712824
0.1812783 0.067207225 0.77400005 4283581498
0.14696085 0.072460577 0.77150005 4281672722
0.17813174 0.072530724 0.77225 4283779129
0.14803079 0.077101916 0.77233338 4281672469
0.15122567 0.078688197 0.77000004 4281673499
0.17797884 0.076582953 0.77079999 4283253558
0.18132456 0.077547416 0.77225 4283977288
0.14841232 0.08243373 0.77312505 4281672468
0.15203212 0.082734853 0.77039999 4281475603
0.17852174 0.080507934 0.77000004 4284900955
0.18242592 0.082445674 0.77111113 4283650381
0.14917044 0.087271914 0.77350003 4281739286
0.15308917 0.087716773 0.771375 4281607958
0.15587556 0.089664802 0.77050006 4281740571
0.17852174 0.08960662 0.77000004 4283450687
0.18262672 0.088128947 0.77099997 4284505173
0.15187915 0.092126615 0.77333337 4281608470
0.15592584 0.092426464 0.77075005 4281608728
0.17488226 0.093246095 0.77000004 4282595625
0.17784311 0.092456728 0.77100003 4282727733
0.1824114 0.092465803 0.77260005 4283846987
0.15333346 0.096900709 0.77375007 4281344784
0.1569546 0.097054124 0.7713334 4281344527
0.16032435 0.098705307 0.77000004 4282066193
0.16851316 0.098705307 0.77000004 4282919953
0.17251395 0.097351596 0.77079999 4284237603
0.17709769 0.096724138 0.77285719 4282463522
0.1812783 0.095559679 0.77400005 4283451976
0.15762484 0.10258223 0.77350008 4281672462
0.16254158 0.1025977 0.77188897 4282263569
0.16748694 0.10233302 0.7718572 4282854930
0.17198487 0.10156918 0.77333337 4284236826
0.1629864 0.10653483 0.77399999 4282395151
0.16664478 0.10653483 0.77400005 4282789395
0.15384045 0.15958136 0.77400005 4284310117
0.15743022 0.15951264 0.77366668 4283125843
0.16277581 0.15937519 0.77300006 4283784028
0.16734289 0.15937519 0.77300006 4284047712
0.17110774 0.15947828 0.77350008 4283981922
0.14807869 0.16345872 0.7725715 4284179303
0.15250379 0.16278863 0.77187502 4284113510
0.15688758 0.1616952 0.77100009 4283982179
0.16184708 0.16118774 0.77075005 4284048229
0.16782095 0.16078493 0.77100009 4284048229
0.1437882 0.0096496418 0.77900004 4289574079
0.14764816 0.0089013251 0.778 4286676349
0.15286252 0.0091534099 0.77600002 4285755759
0.15800637 0.0077835745 0.77649999 4282993225
0.1623853 0.0077735507 0.77550006 4282993996
0.16502853 0.0077685388 0.77500004 4282861383
0.13826518 0.013331657 0.77900004 4287202190
0.14224157 0.012220207 0.77860004 4287268494
0.14696421 0.012368274 0.77633333 4285360749
0.15037608 0.011431647 0.77500004 4285755247
0.13458316 0.017013673 0.77900004 4282067490
0.13817585 0.018382326 0.77850008 4283513898
0.14221247 0.016767073 0.77711111 4284041797
0.14598414 0.015114232 0.77600002 4285557612
0.12906013 0.022536695 0.77900004 4282268732
0.13260937 0.022513406 0.77822232 4282461471
0.13786995 0.022471616 0.77677774 4283841562
0.14121832 0.020589419 0.77500004 4283446548
0.12900491 0.028048499 0.77866673 4282268218
0.13253388 0.028015954 0.77777779 4282067226
0.13725808 0.027700296 0.77628571 4282328585
0.13251416 0.03260633 0.77766675 4281673239
0.13690332 0.032557413 0.77649999 4282000652
0.13326944 0.036627162 0.77850008 4281935637
0.13681458 0.037121244 0.77600002 4282066190
0.13354748 0.042750765 0.77833337 4282131988
0.13666645 0.042267673 0.7762 4282066448
0.1334047 0.047299042 0.77750003 4281934867
0.13631289 0.048567135 0.77575004 4281934605
0.13299869 0.052150253 0.77742857 4281869588
0.13681516 0.052710131 0.77600002 4281803019
0.1328436 0.057231221 0.77825004 4282000146
0.13733383 0.05760907 0.77671427 4281934091
0.13458316 0.061197851 0.77900004 4282066191
0.138227 0.062687933 0.77750003 4281737483
0.14130943 0.063672587 0.77550006 4281737739
0.18565349 0.064713292 0.77700001 4284372813
0.13900642 0.067555137 0.77800006 4281540617
0.14227077 0.067359477 0.77575004 4281804303
0.18369892 0.067424893 0.77649999 4283648319
0.18577296 0.067511722 0.77750003 4284109902
0.13892964 0.071839079 0.7786001 4281540361
0.1427228 0.072425522 0.7765556 4281869584
0.18266487 0.071965672 0.77600002 4283319103
0.18605173 0.072212197 0.77866673 4283979095
0.13868047 0.078201622 0.77875006 4281606159
0.14190221 0.077387042 0.77750003 4281737742
0.14506836 0.077467427 0.77600002 4281804049
0.13909575 0.082316563 0.77850008 4281736974
0.14250089 0.083076097 0.77700001 4282000402
0.14547952 0.083400339 0.77575004 4281869330
0.13892964 0.086559571 0.7786001 4281803021
0.1420584 0.087918833 0.77759999 4281934863
0.14593741 0.087526068 0.77575004 4281870869
0.14236806 0.092165135 0.77842861 4281935372
0.14696409 0.092178874 0.77633333 4281805074
0.15037608 0.093851589 0.77500004 4281740825
0.18517563 0.093851589 0.77500004 4283518800
0.1437882 0.096176989 0.77900004 4281343492
0.14746222 0.097631469 0.77775002 4281278216
0.15130322 0.098007768 0.77600002 4281147404
0.17876518 0.09934625 0.77500004 4281344532
0.18275292 0.097957909 0.77560008 4283715663
0.1854942 0.097683243 0.77633333 4284638825
0.14863366 0.10227016 0.77866673 4281475596
0.15272114 0.10265627 0.77628571 4281475853
0.15587077 0.10484092 0.77500004 4281606926
0.17246653 0.10399219 0.77550006 4283644434
0.17727667 0.10229177 0.77649999 4283711522
0.18221593 0.10248957 0.77800006 4283187776
0.18613137 0.10170002 0.77900004 4284835947
0.14931121 0.10538203 0.77900004 4282067222
0.15249248 0.10726391 0.77762496 4281869586
0.1578711 0.10770452 0.77583337 4281803533
0.16228119 0.10850403 0.77500004 4282461200
0.16737238 0.10808114 0.77525008 4283118871
0.17306253 0.10747274 0.77700001 4284105501
0.17748055 0.10674614 0.77820003 4283776800
0.18060835 0.10538203 0.77900004 4281146643
0.15415433 0.11147127 0.77866673 4282001941
0.15819894 0.1125217 0.77744448 4281738767
0.16263019 0.11240914 0.77666664 4282330641
0.16726702 0.11244077 0.77688891 4282922005
0.17210299 0.11260211 0.77800012 4283842074
0.17508535 0.11274606 0.77900004 4285222694
0.15754488 0.11731121 0.77875006 4281672461
0.1622199 0.11788743 0.778 4282132752
0.16745813 0.11808378 0.77777779 4282856213
0.17200769 0.11780979 0.77840006 4283777049
0.17508534 0.11642807 0.77900004 4284959775
0.15851626 0.1219511 0.77900004 4281805075
0.16181561 0.12238697 0.77842861 4282198547
0.16750599 0.12271386 0.77800006 4282724370
0.17241992 0.1222562 0.7786001 4283710743
0.15483426 0.12931512 0.77900004 4281081352
0.15805601 0.12793438 0.77900004 4281673232
0.16201295 0.12732893 0.77811116 4282132754
0.16753016 0.12732893 0.77811116 4282855187
0.1720517 0.12704095 0.77860004 4283842074
0.15805601 0.13253689 0.77900004 4281672720
0.16219828 0.13299714 0.77900004 4282395670
0.1677213 0.13299714 0.77900004 4283053336
0.1714033 0.13207664 0.77900004 4283644953
0.16311878 0.13759966 0.77900004 4282527771
0.16772129 0.13759966 0.77900004 4283119644
0.16588029 0.14036116 0.77900004 4282725407
0.16403928 0.1486457 0.77900004 4282395156
0.16792242 0.14819635 0.7787143 4282789393
0.17180854 0.14813747 0.77875006 4283445776
0.15841451 0.15406919 0.77850008 4282596140
0.16227137 0.15332991 0.7782501 4282529571
0.16743422 0.15298513 0.77766663 4283120936
0.17213966 0.15308429 0.77816677 4283251489
0.14277542 0.15866934 0.77850008 4282073670
0.14767 0.15842016 0.77728575 4281744703
0.15248686 0.15724722 0.77727282 4282072380
0.15775874 0.15696327 0.77657145 4282072123
0.16249059 0.15724166 0.77600002 4282138173
0.16700321 0.15717451 0.77566671 4282730309
0.17293513 0.15772149 0.77642858 4283520596
0.17669922 0.15856743 0.77800006 4283850590
0.13861065 0.16275214 0.77749997 4283850595
0.14268349 0.16158991 0.77633333 4283784802
0.14598414 0.16090949 0.77600002 4283719009
0.17771211 0.16109312 0.77600002 4284113509
0.13760972 0.0096682226 0.78050005 4294115071
0.14194199 0.0085665034 0.78100002 4292272362
0.14581615 0.0078186588 0.78000003 4289902013
0.13492869 0.013365885 0.78100002 4286345592
0.13727213 0.012124774 0.78033334 4290164417
0.14028604 0.013348771 0.78000003 4286544255
0.13293691 0.017301634 0.7801429 4282332467
0.13721375 0.015806599 0.78000003 4284305742
0.12922581 0.032704163 0.78000003 4282531392
0.12944672 0.03737795 0.78133339 4281807663
0.13168365 0.038541503 0.78000003 4281607705
0.12955716 0.042952556 0.78200006 4282332728
0.13106918 0.042842705 0.78000003 4281804066
0.12939148 0.047511965 0.78100002 4282069555
0.13106918 0.047451131 0.78000003 4281541402
0.12928103 0.052081015 0.78033334 4281871918
0.13106918 0.051137872 0.78000003 4281804573
0.12928103 0.057615068 0.78033334 4281543465
0.13106918 0.059433039 0.78000003 4281737748
0.12955716 0.062358759 0.78200006 4281609261
0.13294056 0.062826037 0.78016669 4281804049
0.1365993 0.064963147 0.78000003 4281935375
0.12977806 0.067092814 0.78333336 4281872690
0.13299987 0.067198426 0.78187507 4281738003
0.1365993 0.067728207 0.78000003 4281737996
0.1298885 0.071781181 0.78400004 4281146648
0.13282101 0.072312109 0.78257143 4281869334
0.13610522 0.072836086 0.78140002 4281803277
0.1298885 0.077339649 0.78400004 4281607198
0.13254054 0.077265956 0.78325009 4281738519
0.13593794 0.078016497 0.7815001 4281869074
0.1298885 0.081971712 0.7840001 4281869854
0.13279702 0.082070753 0.78242862 4281804308
0.13615839 0.0822725 0.78100008 4282066450
0.1298885 0.087530188 0.7840001 4281804061
0.13312678 0.087146834 0.78262502 4282067223
0.13622484 0.087601453 0.78049999 4282066192
0.13261135 0.093049079 0.78366667 4281935894
0.13687013 0.092799202 0.78155565 4282066444
0.14028604 0.093535393 0.78000003 4281935115
0.13266775 0.0967943 0.78400004 4282001173
0.13715309 0.097617425 0.78316671 4282000396
0.1419051 0.097506657 0.78079998 4281737480
0.14581615 0.099987186 0.78000003 4281343238
0.13785826 0.10169204 0.78366667 4281868811
0.14245203 0.10206318 0.78177786 4281737738
0.14649291 0.10310379 0.78033334 4281606668
0.1863703 0.10367394 0.78000003 4284902254
0.13915263 0.10698484 0.78400004 4281671176
0.14261429 0.10772826 0.78266668 4282066706
0.14756989 0.10769492 0.78075004 4282198551
0.17899682 0.10920405 0.78000003 4282724121
0.18253249 0.10745284 0.78066665 4283187261
0.18598387 0.108133 0.78225005 4285098863
0.14311858 0.11227213 0.78340006 4282132501
0.14800541 0.11223248 0.78183341 4282001684
0.15216121 0.11331782 0.78039998 4282001940
0.15503301 0.11473416 0.78000003 4282001684
0.1779826 0.11257954 0.7804001 4283973666
0.18211201 0.11218443 0.78150004 4282463275
0.18622163 0.11243594 0.78325003 4285231218
0.1440935 0.11594015 0.7840001 4281935379
0.14797129 0.11677681 0.782875 4281606928
0.15206373 0.11795541 0.78180009 4281409547
0.15503301 0.11749922 0.78000003 4281541133
0.17807311 0.11739165 0.78133345 4284170787
0.18242271 0.11700178 0.7828334 4282595120
0.18587729 0.11667538 0.78375006 4284902767
0.14471111 0.12366024 0.78400004 4282002198
0.14772476 0.12286333 0.78314292 4281805333
0.1518908 0.12213013 0.78162509 4281739797
0.15595469 0.12210763 0.78000003 4281870868
0.17753488 0.12236908 0.78166676 4284170528
0.18238519 0.12149862 0.7840001 4282660656
0.14328252 0.12819847 0.78342861 4281608211
0.1480158 0.1279466 0.78188896 4281542418
0.15233262 0.1276923 0.78033334 4281542162
0.15595469 0.12671608 0.78000003 4281936662
0.17346671 0.12948112 0.78000003 4283776536
0.17660911 0.12791088 0.7816667 4284039198
0.13818184 0.13288169 0.78375006 4281081871
0.14241102 0.13235761 0.78300005 4281542162
0.14797424 0.13252877 0.78166676 4281278736
0.15236495 0.13233095 0.78049999 4281344271
0.15564746 0.13255341 0.78000003 4281475599
0.17346671 0.13224618 0.78000003 4283907867
0.17674102 0.13262795 0.78225005 4283973661
0.13733263 0.13759065 0.782875 4281212685
0.14251383 0.13722475 0.78211117 4281542163
0.14791113 0.13708857 0.78133339 4281410836
0.15239769 0.13697197 0.78066665 4281739544
0.15667079 0.13710725 0.78012508 4281870872
0.16056311 0.13777629 0.78000003 4282002713
0.17261916 0.13691349 0.78033334 4283513885
0.17679721 0.13729325 0.78250003 4284039715
0.13757698 0.14258976 0.78257143 4281147150
0.14245309 0.14270872 0.78177786 4281607699
0.14799607 0.14270924 0.78177786 4281804824
0.15252782 0.14262773 0.78133339 4281870874
0.15703227 0.1425267 0.78077781 4282068251
0.16240649 0.14238471 0.78000009 4282528285
0.16816701 0.14261514 0.78000009 4282790425
0.17265622 0.14247601 0.78049999 4283250454
0.17679721 0.1428411 0.78250003 4283644957
0.13796118 0.14746429 0.78250003 4281475858
0.1425873 0.14792086 0.78125006 4281344525
0.1478909 0.14814635 0.78122228 4281344527
0.15243042 0.14807326 0.7808333 4281475856
0.15689844 0.14793591 0.78011119 4281804562
0.16187981 0.14765151 0.78000009 4282330134
0.16701491 0.14607146 0.78000003 4282593304
0.17346671 0.14699316 0.78000003 4283577875
0.17640987 0.14784768 0.7816 4283774999
0.13864505 0.15186782 0.78375006 4281215773
0.14225486 0.15254644 0.78214294 4281478429
0.1478488 0.1527188 0.78100008 4281148949
0.15226793 0.15252326 0.78000003 4281082128
0.1565077 0.15233892 0.78000003 4281476111
0.16056311 0.15160158 0.78000003 4282526482
0.17786975 0.15224501 0.78212506 4283185699
0.1385563 0.15824842 0.78324997 4281876804
0.14209899 0.15686199 0.78128576 4281085745
0.14719868 0.15574916 0.78000003 4281941048
0.17799699 0.15671711 0.78099996 4283520078
0.18207528 0.15890096 0.78266668 4283850077
0.18547323 0.15979031 0.78400004 4284047715
0.13681644 0.16153699 0.78125 4283456094
0.18372354 0.16092151 0.78050005 4284179301
0.12852561 0.067406073 0.78700006 4285493104
0.12868893 0.07121627 0.78800005 4285494131
0.13005418 0.074655518 0.78500003 4281344027
0.128199 0.082076259 0.78500003 4284900451
0.12825342 0.087679833 0.7853334 4284702046
0.12774311 0.092706941 0.78600001 4284504154
0.13005418 0.092279792 0.78500003 4281277980
0.12748718 0.097083159 0.78633338 4284373338
0.1313003 0.097759075 0.78580004 4281606937
0.12775779 0.1010127 0.78800005 4284110166
0.13241374 0.10246357 0.78662509 4281870361
0.13623814 0.10372013 0.78500003 4282066191
0.13330144 0.10749686 0.78775001 4281674006
0.13717301 0.10773243 0.78540003 4281999884
0.13433255 0.11223461 0.78833342 4281542163
0.13739508 0.11211603 0.78587496 4281606669
0.1411853 0.11361445 0.78500003 4281935377
0.13444616 0.11792266 0.78900003 4281212687
0.13770765 0.11752411 0.78633338 4281278220
0.14248204 0.11799344 0.78533334 4281738258
0.18756498 0.11825241 0.78500003 4284706676
0.13427576 0.12242889 0.78800005 4281475346
0.13768846 0.12308148 0.78622228 4281344015
0.14258786 0.12269179 0.78542858 4281739027
0.18304412 0.12389626 0.78550005 4282726456
0.18656634 0.12180857 0.78600007 4284968052
0.13331544 0.12705731 0.78783339 4281344792
0.13756169 0.12760939 0.78550005 4281147663
0.1411853 0.12660076 0.78500003 4281344783
0.18234955 0.12715186 0.78650004 4282725419
0.18665609 0.12538122 0.78900003 4284967283
0.13320222 0.13253151 0.78716677 4281410841
0.13673286 0.13142425 0.78500003 4280950285
0.18161164 0.13255955 0.78733331 4283054630
0.13339359 0.13774495 0.78720003 4281016338
0.13561974 0.13587669 0.78500003 4280950030
0.18037371 0.13790733 0.78600001 4283382821
0.13410537 0.14273258 0.78700006 4281016082
0.13561974 0.14329743 0.78500003 4281147409
0.18181285 0.14224572 0.78740007 4282264605
0.13416217 0.14744557 0.78733343 4281147665
0.13573492 0.14713345 0.7856667 4281344529
0.1817688 0.14751463 0.78628576 4282461471
0.13444616 0.15148619 0.78900003 4281939755
0.13680767 0.15286492 0.78650004 4281283112
0.18316044 0.15276735 0.78600007 4283517512
0.18719877 0.1526645 0.78866673 4283914330
0.13376783 0.15825604 0.78866673 4282534734
0.13646889 0.15747601 0.78633338 4281481788
0.18331428 0.15696849 0.78533334 4284046171
0.18757787 0.15737674 0.787 4284046430
0.13180578 0.16106324 0.78659999 4283061593
0.12741363 0.10272819 0.79166669 4284966760
0.12966879 0.10553475 0.79400003 4281676092
0.13115866 0.10709713 0.79166669 4281149215
0.13265851 0.11232291 0.79225004 4281148438
0.13308562 0.11743516 0.79200006 4281344534
0.13286157 0.12190733 0.79066676 4281278486
0.18899859 0.12382966 0.79100001 4284903029
0.18631284 0.12858373 0.79150003 4284440161
0.18572828 0.13257739 0.79300004 4282071096
0.18315865 0.13767564 0.79000002 4282528034
0.13244846 0.14299245 0.79100001 4281148183
0.1857283 0.14288212 0.79300004 4283648843
0.1321474 0.14738286 0.79200006 4281082135
0.18643172 0.14738226 0.792 4284110425
0.13311782 0.15210012 0.79219997 4281216549
0.18853478 0.15075035 0.79166669 4283914332
0.19181441 0.153374 0.79233336 4283849053
0.12848678 0.15964982 0.79250002 4283258972
0.13274394 0.15734236 0.79219997 4282205768
0.19301422 0.15627703 0.7906 4283849310
0.12623306 0.10391941 0.79600006 4286218884
0.12890224 0.10718999 0.79700011 4283322459
0.13015872 0.1097006 0.79700005 4281215541
0.13094909 0.11298063 0.79800004 4281084205
0.13132009 0.11688654 0.79720008 4281149480
0.13144594 0.12276918 0.79625005 4281805869
0.13179377 0.12735474 0.79550004 4282200112
0.13198705 0.13224861 0.79666668 4282398257
0.18846983 0.13225017 0.79666668 4284770669
0.1318766 0.1377807 0.79600006 4282201647
0.18732674 0.13750689 0.79660004 4283650130
0.1318766 0.14248367 0.79600006 4281215009
0.18886411 0.14195719 0.79833335 4284770412
0.13032204 0.14755486 0.79800004 4280490780
0.18913323 0.14709298 0.79550004 4284046690
0.19137943 0.14761728 0.79833341 4283981669
0.12859707 0.15151788 0.79900002 4283520346
0.1310579 0.152973 0.79675001 4282006845
0.19332938 0.15157527 0.796 4283849824
0.19743165 0.1529718 0.79675001 4283718752
0.12843435 0.15839982 0.79800004 4283323737
0.13089466 0.15629099 0.79766673 4282468427
0.12891898 0.11025117 0.80100006 4285098871
0.13064866 0.11956669 0.80000001 4281151030
0.13081197 0.12160916 0.80100006 4281480254
0.13064866 0.12618393 0.80000001 4282006082
0.13105693 0.13795693 0.80250001 4282202682
0.13075753 0.14237209 0.80066675 4281018408
0.19162691 0.14355648 0.80200005 4284245608
0.1289726 0.14817043 0.80133337 4283125333
0.19391118 0.1481088 0.80100006 4284244584
0.19566129 0.14848098 0.80300003 4284310123
0.12761757 0.15251145 0.80175 4283520860
0.19857657 0.15082164 0.80200005 4283784547
0.12706444 0.15667884 0.80125004 4283521117
0.19258265 0.13951162 0.80600005 4284574578
0.12988465 0.14349906 0.80700004 4284179560
0.13004559 0.14176734 0.80800003 4283257944
0.19234371 0.14124098 0.80500007 4284771443
0.19521135 0.14385469 0.80900002 4284245867
0.12789583 0.14770013 0.80650002 4283652960
0.19448747 0.14522606 0.80600005 4284377194
0.19746652 0.14817455 0.80650008 4284047463
0.12304316 0.15354128 0.80800003 4283915874
0.125862 0.15278055 0.80566674 4283981667
0.12575786 0.15646061 0.80500007 4283981667
0.1287704 0.14438815 0.81200004 4284048234
0.1303675 0.14020398 0.81000006 4283849057
0.19701777 0.14351875 0.8125 4284442991
0.12765232 0.14708647 0.81100005 4283916392
0.12296291 0.15136205 0.81166673 4283981667
0.12924615 0.14299552 0.81500006 4284376939
0.12693761 0.14714563 0.81666678 4284310634
0.12631713 0.14792877 0.82100004 4284245353
