# .PCD v0.7 - Point Cloud Data file format
VERSION 0.7
FIELDS x y z rgb
SIZE 4 4 4 4
TYPE F F F U
COUNT 1 1 1 1
WIDTH 1016
HEIGHT 1
VIEWPOINT 0 0 0 1 0 0 0
POINTS 1016
DATA ascii
-0.044048447 -0.014875133 0.64500004 4278453252
-0.0021316078 -0.014898194 0.64600003 4279571986
0.002126252 -0.012311175 0.64757144 4279703570
-0.061641585 -0.0062692575 0.64833337 4278716164
-0.058104932 -0.0074637956 0.64662498 4278584837
-0.053956568 -0.0087778289 0.64500004 4278585092
0.0047446447 -0.0088050468 0.64700001 4280887587
0.0074198954 -0.0072777672 0.64700001 4280887329
0.010894428 -0.0057647075 0.64900005 4281874223
-0.06569314 -0.0011615774 0.648 4279439373
-0.062493589 -0.0026877313 0.64657152 4279045129
-0.059291705 -0.0042048516 0.64500004 4278585092
0.01239227 -0.0037074175 0.64700001 4281873451
0.015448011 -0.0011597848 0.64700001 4282005032
-0.07105428 0.0049640853 0.648 4279242762
-0.06709151 0.0023319903 0.64671427 4279505420
-0.063864686 0.000368126 0.64500004 4279176969
0.01844891 0.0018924518 0.64500004 4280360723
0.023069477 0.0044416334 0.6463334 4282398513
0.026191795 0.0049640848 0.648 4280162321
-0.076923527 0.0090470724 0.648 4278584578
-0.073473975 0.0076998686 0.64640003 4278650371
-0.069961987 0.0064654294 0.64500004 4278979590
0.02765427 0.0064787944 0.6463334 4279768334
0.03225714 0.0080101611 0.64680004 4279571470
0.036543682 0.0091785751 0.64824998 4279505678
-0.082131013 0.012909976 0.64719999 4278519557
-0.078468427 0.011055521 0.64600003 4278519042
0.038169861 0.012246748 0.64622229 4279440400
0.042304866 0.0133972 0.64850003 4279637520
-0.090334989 0.018775757 0.64900005 4278519299
-0.086775519 0.017372448 0.64675003 4278322691
-0.08368092 0.015611384 0.64500004 4278388740
0.039423812 0.016760679 0.64525002 4279571984
0.042239636 0.017202126 0.64750004 4279637520
-0.096321456 0.024872487 0.648 4278453506
-0.092004612 0.022813542 0.64755553 4278453507
-0.088332415 0.022163104 0.64557141 4278387971
0.03952162 0.022644894 0.64560002 4279703059
0.042006537 0.022058496 0.64783341 4279768851
-0.096247137 0.027148057 0.64750004 4278650885
-0.093020067 0.027862944 0.64633334 4278453763
-0.089778222 0.027805991 0.64500004 4278454021
0.039789472 0.027043827 0.64500004 4279835155
0.041808743 0.028263105 0.64675003 4279966227
-0.091557339 0.032470744 0.64680004 4278453506
-0.089016058 0.032378968 0.64500004 4278584835
0.043193769 0.032454263 0.64650005 4280690462
-0.086489595 0.036558021 0.64700001 4278519299
-0.083216064 0.037988048 0.64533335 4278716422
0.044362448 0.035427622 0.64500004 4280690208
0.047140278 0.037037879 0.64650005 4280624672
-0.081999004 0.040491387 0.64675003 4278782214
-0.078467242 0.043117173 0.64600003 4279440145
-0.076648504 0.047370352 0.64674997 4280691241
-0.076236174 0.052313041 0.64649999 4280822826
-0.01819114 0.079879984 0.64700001 4279506194
0.0093173785 0.079756528 0.64600003 4280230690
0.013164008 0.077646956 0.64750004 4281151019
0.017029544 0.075525582 0.64900005 4282269500
-0.01746879 0.080830887 0.64850003 4279308816
-0.0021338495 0.084401876 0.64649999 4279704600
0.0016874089 0.083491296 0.64733332 4279901981
0.0070394045 0.081409037 0.64700001 4280033311
-0.036162302 -0.10009044 0.65400004 4279440401
-0.032298315 -0.10009044 0.65400004 4279440401
-0.027661527 -0.10009044 0.65400004 4279769366
-0.023797538 -0.10009044 0.65400004 4279900698
-0.042558726 -0.096386366 0.65333337 4279374608
-0.037621804 -0.096777566 0.65249997 4279374608
-0.032216001 -0.096752845 0.65233332 4279374608
-0.027595472 -0.096769325 0.65244448 4279769366
-0.02298901 -0.096851461 0.65300006 4279769366
-0.017905068 -0.096587256 0.65330011 4280163868
-0.012967858 -0.095380679 0.65350008 4281150508
-0.046185121 -0.09231618 0.65366673 4279308815
-0.043008387 -0.092127092 0.65233338 4279243022
-0.037550028 -0.091974288 0.65125 4279309071
-0.032138918 -0.091908447 0.65077782 4279243279
-0.027534641 -0.091940366 0.65100002 4279572244
-0.022919124 -0.091940366 0.65100002 4279769366
-0.017540397 -0.091975473 0.65125 4279967003
-0.012173942 -0.092128143 0.65233338 4280689955
-0.0085860342 -0.091192424 0.65300006 4280163610
-0.046208669 -0.087725677 0.65400004 4279177229
-0.043030366 -0.087546825 0.65266669 4279243022
-0.037578855 -0.087423474 0.65174997 4279112205
-0.03214493 -0.087308615 0.65088892 4279112463
-0.027497306 -0.087204307 0.65011114 4279572500
-0.023191145 -0.088110819 0.65000004 4279703573
-0.017507419 -0.088725276 0.65000004 4279836186
-0.011826952 -0.088138118 0.65020007 4280689952
-0.007544064 -0.087458991 0.65200001 4280229658
-0.0044707484 -0.086048305 0.65300006 4280098071
-0.046577409 -0.082671322 0.65375006 4278979595
-0.043044489 -0.082947999 0.65288895 4279177229
-0.037578855 -0.082803428 0.65174997 4279243022
-0.032342058 -0.083074711 0.65042865 4279177230
-0.028260414 -0.084116846 0.65000004 4279507221
-0.0065014684 -0.083647929 0.6503334 4280229401
-0.0034343333 -0.082300387 0.65183336 4280229402
-0.061602563 -0.075284094 0.65333337 4278980364
-0.056720521 -0.076349005 0.653 4278651913
-0.052256752 -0.077226505 0.65233338 4278717450
-0.047592267 -0.078187637 0.6517778 4278914059
-0.04313948 -0.07853315 0.65100002 4279045644
-0.037950348 -0.079225659 0.65020007 4279111437
-0.0018913852 -0.079077922 0.65066671 4280229403
0.0018738048 -0.07690917 0.65255558 4280098073
-0.067435101 -0.071233749 0.653 4279308814
-0.063017964 -0.072050028 0.65200001 4279111693
-0.057714012 -0.072038755 0.65063637 4278651914
-0.052070618 -0.073875897 0.65000004 4278717194
-0.048998337 -0.074899994 0.65000004 4278913803
0.0032364505 -0.072801575 0.65085715 4279966485
0.0067206994 -0.071801633 0.65325004 4279900692
-0.072194509 -0.067350142 0.65312505 4279900953
-0.067582682 -0.067370228 0.65144449 4279769368
-0.063150652 -0.068162128 0.65020007 4279637782
-0.059751332 -0.068755426 0.65000004 4279178002
0.0047666449 -0.068755426 0.65000004 4280032278
0.0076697879 -0.067208245 0.65175003 4281150759
-0.076508701 -0.062401474 0.65316671 4280295708
-0.072189301 -0.062740341 0.65133339 4280098331
-0.067944087 -0.063122898 0.65000004 4279901210
0.0086190188 -0.062691517 0.65083337 4281019174
0.010969967 -0.062176373 0.65350008 4281282348
-0.080130011 -0.056756645 0.65333343 4279769108
-0.077014968 -0.057613328 0.65190911 4279637779
-0.072053045 -0.058012605 0.65011114 4279506194
-0.068968184 -0.059538569 0.65000004 4279769620
0.0093750712 -0.058002427 0.65000004 4280756261
0.011473973 -0.056969229 0.65283334 4280625188
-0.080645211 -0.053153407 0.65333343 4279834645
-0.076708019 -0.052308224 0.65180004 4279111436
-0.072210781 -0.052437786 0.65027279 4278848780
-0.068200111 -0.050321717 0.65000004 4278650374
0.009070727 -0.05218057 0.65020001 4279177486
0.011734371 -0.052097201 0.65300006 4279111693
-0.076527953 -0.048005756 0.65333337 4278716166
-0.072263181 -0.047393501 0.65200001 4278453765
-0.06747894 -0.047280949 0.65044451 4278519044
-0.063207649 -0.046097323 0.65000004 4278453508
-0.059751332 -0.045713287 0.65000004 4278519299
0.0047666449 -0.045713287 0.65000004 4278848010
0.0080480892 -0.04714739 0.65125006 4278650885
0.010967169 -0.047490951 0.65333343 4278650885
-0.071895897 -0.043374483 0.65333343 4278453507
-0.067651838 -0.042778969 0.65211111 4278519299
-0.062942535 -0.042720392 0.65122223 4278716678
-0.058054719 -0.042306662 0.65011114 4278650630
0.0043844427 -0.042272776 0.65025002 4279243022
0.0078726634 -0.042815153 0.65266669 4279242766
-0.0709382 -0.039039422 0.65400004 4278782214
-0.06775251 -0.037440587 0.65308332 4279243022
-0.063025169 -0.037383646 0.65208334 4279111436
-0.057553325 -0.037331328 0.65118748 4278782216
-0.05258267 -0.037520528 0.65000004 4278913802
0.0031100817 -0.037078667 0.65125006 4279177230
0.0069949846 -0.037774201 0.65314293 4279243022
-0.067589864 -0.032246485 0.65337503 4279308815
-0.062776402 -0.031865668 0.65270001 4278782471
-0.057406042 -0.032121524 0.65190911 4278584838
-0.052111462 -0.032680213 0.65050006 4278848010
-0.048998337 -0.032656081 0.65000004 4278913803
-0.0059863515 -0.030351866 0.65000004 4278782217
-0.0027276226 -0.032338317 0.651375 4278979339
0.0017034611 -0.033341911 0.65271431 4279177231
-0.06630142 -0.028993053 0.65400004 4279243022
-0.062358458 -0.027412288 0.65316671 4278584836
-0.056883294 -0.027377509 0.65233338 4278519301
-0.052152306 -0.027321551 0.65100002 4278782217
-0.048614301 -0.027279582 0.65000004 4278848010
-0.0067636329 -0.027320763 0.65100008 4278716422
-0.0044741714 -0.028198089 0.65350008 4278650631
-0.061908223 -0.022940578 0.65329999 4278519044
-0.056863919 -0.022745315 0.65211111 4278519045
-0.052283261 -0.022872185 0.65025002 4278519045
-0.048998337 -0.024207296 0.65000004 4278519045
-0.0066141747 -0.023028631 0.65140003 4278782470
-0.0044707484 -0.02123256 0.65300006 4278716932
-0.061907984 -0.017691461 0.65329999 4278519299
-0.057423387 -0.017454302 0.65116668 4278519299
-0.053606763 -0.018830799 0.65000004 4278519045
-0.0026121694 -0.018410752 0.65140009 4279045899
0.0017014677 -0.015819125 0.65250003 4279374864
-0.062873818 -0.011771685 0.65250003 4278781957
-0.058848031 -0.012843984 0.65020001 4278519299
0.0042684763 -0.012982075 0.65200001 4279703570
0.0063318764 -0.01120273 0.653 4279440398
-0.066611782 -0.0069610635 0.65325004 4279242252
-0.063450783 -0.0078360811 0.65116674 4278782471
0.0088902945 -0.0083610443 0.65200001 4279769106
0.01173319 -0.0065718535 0.65300006 4281413673
-0.067641214 -0.0027102919 0.65200001 4279374094
-0.064359754 -0.0042374469 0.65000004 4279110922
0.014026524 -0.0042504855 0.65200001 4284834647
0.016374825 -0.0019442344 0.65350008 4281807907
-0.072042346 0.002792136 0.65200001 4279505677
-0.06902124 0.0011393361 0.65050006 4279505677
0.018620526 0.00037155041 0.65100002 4282071593
0.022713676 0.0029347483 0.65066671 4284571224
0.027879296 0.0044777635 0.6516667 4280426261
-0.081633151 0.009117675 0.65300006 4278453507
-0.077358268 0.0070435158 0.6516667 4278716164
0.0328351 0.0056111896 0.6522001 4279834384
0.037436336 0.0071485215 0.65180004 4279440142
0.042213589 0.0089580566 0.65214288 4279505936
0.046527058 0.0096468357 0.65400004 4280229403
-0.087364063 0.013622647 0.65200007 4278519558
-0.083989762 0.011658843 0.65133339 4278519302
0.043812167 0.012052506 0.65040004 4279703315
0.047204208 0.012710876 0.65266675 4280032279
-0.095667727 0.018920409 0.65400004 4278453506
-0.09229479 0.017320665 0.65200001 4278453506
-0.088938035 0.015732402 0.65000004 4278519299
0.044706341 0.017268544 0.65000004 4279834899
0.047180101 0.017330535 0.65233338 4279966228
-0.10015115 0.023521176 0.65300006 4278453506
-0.096850239 0.022440322 0.6515556 4278453506
-0.093546458 0.021108899 0.65000004 4278519299
0.044133153 0.022819797 0.65060008 4279900438
0.046860099 0.02160114 0.65325004 4279900437
-0.099997774 0.025026022 0.65200001 4278519299
0.044274539 0.027301796 0.65116668 4280427035
0.046527058 0.02819398 0.65400004 4280821794
0.044706341 0.031093825 0.65000004 4281282345
0.04677058 0.033114403 0.65200007 4281018918
-0.091266178 0.036327306 0.65200001 4278453506
-0.088608421 0.038341239 0.65133339 4278519299
0.048903883 0.036287535 0.65133339 4279045128
-0.086732425 0.040991254 0.65266675 4278519299
-0.08295387 0.042697135 0.65125006 4278650885
-0.079721183 0.044919103 0.65000004 4281482041
-0.081507348 0.045057315 0.65200001 4278716678
-0.078899138 0.048115235 0.6516667 4278980622
-0.07866618 0.051377915 0.65400004 4281611570
0.022773163 0.073343009 0.65233332 4282466873
0.014026524 0.078956433 0.65200001 4281808435
0.017098688 0.076584578 0.65150005 4282467134
-0.035281278 0.080497295 0.65200001 4278914057
-0.032134481 0.080332682 0.65066671 4278914058
-0.02756205 0.080456145 0.65166664 4278913803
-0.022908175 0.080332682 0.65066671 4279111182
-0.016790064 0.082552575 0.65200001 4279374354
-0.012141434 0.084154829 0.65050006 4279440147
0.0032318057 0.084156007 0.65050006 4279901981
0.0078670681 0.083108142 0.65233332 4280165154
0.01170801 0.080435574 0.65150005 4280756262
-0.012168246 0.085119911 0.65200001 4279441174
-0.0083230427 0.086727239 0.65250003 4279637781
-0.002923033 0.08666078 0.65200001 4279769880
0.0027335274 0.085852705 0.65366673 4279836444
-0.041111007 -0.1055279 0.65900004 4279637526
-0.036883879 -0.10608681 0.65860003 4279703573
-0.032495856 -0.10614646 0.65799999 4279571987
-0.027636331 -0.10672991 0.65799999 4280032539
-0.02239058 -0.10693794 0.65808338 4280032540
-0.016957458 -0.10622653 0.65850002 4281939500
-0.013856299 -0.1055279 0.65900004 4281544742
-0.046544284 -0.10198546 0.65875006 4279440400
-0.042316929 -0.10193456 0.65681821 4279440401
-0.037261121 -0.10236894 0.65585715 4279571987
-0.032381013 -0.1026706 0.65566677 4279506194
-0.027724972 -0.1026443 0.65549999 4279835159
-0.022500284 -0.10247053 0.65562505 4279900698
-0.017454203 -0.10179329 0.65590918 4280624160
-0.012466425 -0.10200617 0.65762502 4281084197
-0.0086649256 -0.1013748 0.65900004 4280360989
-0.051234186 -0.096183427 0.65900004 4279374094
-0.047975421 -0.097445771 0.65700001 4279374095
-0.044215381 -0.098179542 0.65500003 4279374609
-0.016094131 -0.098695524 0.65500003 4280887333
-0.012010421 -0.09765441 0.65542859 4280624163
-0.0078004538 -0.097306617 0.65737504 4280163869
-0.051182359 -0.092975236 0.65833336 4279242765
-0.048676651 -0.092644922 0.65600002 4279308558
-0.0070689782 -0.093091078 0.65549999 4280163612
-0.0041173394 -0.092574514 0.65825009 4280032283
-0.052393891 -0.087160751 0.65789998 4278979850
-0.048638955 -0.087926887 0.65550005 4279045386
-0.0027495907 -0.087739922 0.65700006 4280164122
0.00016040848 -0.085281536 0.65900004 4280295450
-0.062105428 -0.08056853 0.65866667 4279046672
-0.057171945 -0.081833839 0.657875 4278717450
-0.052755963 -0.082003519 0.65612501 4278782728
-0.048756063 -0.083525524 0.65500003 4278979851
-0.0021625033 -0.083989918 0.65500003 4280163609
0.0014029667 -0.081581876 0.65680003 4280098072
-0.071963526 -0.076417796 0.65866673 4279637266
-0.067627847 -0.077125482 0.65750003 4279374606
-0.062604494 -0.077500768 0.65575004 4279046414
-0.057889018 -0.078572065 0.65500003 4278717451
0.0042987592 -0.078255214 0.6566667 4280097816
0.0068890122 -0.076224171 0.65700001 4280098072
-0.076484352 -0.072378822 0.65850008 4279571727
-0.072743714 -0.072529398 0.65633339 4279637520
-0.06836427 -0.073569417 0.65525007 4279505934
0.008850608 -0.072868511 0.65660012 4279966230
0.011062292 -0.071264833 0.65900004 4280098071
-0.080825016 -0.066592596 0.65900004 4280032533
-0.077463351 -0.067932993 0.6568889 4279834901
-0.074142583 -0.069284312 0.65500003 4279637266
0.0094471872 -0.069284312 0.65500003 4280098071
0.011658398 -0.067674011 0.65740001 4282400565
-0.082017928 -0.062179927 0.65762508 4280229657
-0.078310572 -0.064157337 0.65533334 4280229657
0.012583295 -0.062972695 0.65700006 4281413933
-0.08543238 -0.056427166 0.65850008 4280295453
-0.082451686 -0.0574308 0.65600008 4280229659
0.013497697 -0.057933658 0.65620005 4281282346
0.015734527 -0.056469418 0.65900004 4282925367
-0.086068317 -0.052854985 0.65860003 4279900952
-0.082483284 -0.051793572 0.65566671 4279702802
0.014119747 -0.052362349 0.65633339 4279308298
0.015726568 -0.052548509 0.65866673 4279702282
-0.085497253 -0.048682362 0.65900004 4278979847
-0.082133979 -0.047756694 0.65700001 4278848263
-0.078310572 -0.046604354 0.65533334 4278781959
0.013345376 -0.047709022 0.65633339 4278716421
0.015734527 -0.048682362 0.65900004 4278847747
-0.081303269 -0.044247042 0.65866673 4278585093
-0.077638656 -0.042545166 0.6571818 4278453252
-0.0736266 -0.041937042 0.65500003 4278387459
0.01258642 -0.043107249 0.65711111 4279045644
-0.07668817 -0.037381228 0.65785712 4278584838
-0.072960816 -0.037269868 0.65550005 4278979851
0.0091404803 -0.037097525 0.6552 4279243022
0.011814933 -0.037693005 0.65750003 4279243022
-0.076729521 -0.032620918 0.65860003 4279308815
-0.072682396 -0.03217119 0.65577781 4279440144
-0.06949871 -0.030585341 0.65500003 4279440401
-0.0013885238 -0.030585341 0.65500003 4278913289
0.0030010662 -0.031132458 0.65566677 4279242767
0.0079249227 -0.032229844 0.65700006 4279374608
0.011575836 -0.033350673 0.65866667 4279374608
-0.076152779 -0.029214712 0.65900004 4279637780
-0.072879434 -0.027595889 0.65755558 4279439887
-0.068157509 -0.027300879 0.65512502 4279374351
-0.00249825 -0.027326554 0.65642864 4278716680
0.0019111632 -0.02821362 0.65837497 4279111181
0.0071687624 -0.029214712 0.65900004 4279440401
-0.071842775 -0.023365106 0.65875006 4279505680
-0.068125233 -0.022902627 0.6566667 4279374094
-0.064854831 -0.02207157 0.65500003 4278716164
-0.0027478794 -0.023101261 0.65675002 4278650628
0.00016040848 -0.021427652 0.65900004 4278585092
-0.068103246 -0.017714728 0.6578182 4279374091
-0.064854831 -0.017427692 0.65500003 4278716419
-0.0013885238 -0.01974963 0.65500003 4278716164
0.0028004565 -0.018107122 0.65710002 4278913800
0.006899497 -0.01569329 0.65800005 4279308813
-0.068206705 -0.012055445 0.65744448 4279176714
-0.064854831 -0.013557795 0.65500003 4279110922
0.0081833107 -0.012047295 0.65700001 4279637777
0.011062292 -0.010525767 0.65900004 4279571727
-0.071444385 -0.0074079824 0.65866673 4279242508
-0.069006376 -0.0076899924 0.65619999 4279176715
0.012899602 -0.0077053779 0.65740001 4280032278
-0.072406016 -0.0025104459 0.65728575 4279440142
-0.06949871 -0.0042700428 0.65500003 4279505680
0.0172657 -0.0027345519 0.65800005 4283913798
-0.07703618 0.00244639 0.65766668 4279505678
-0.07370206 0.00089020008 0.65566665 4279637006
0.021875298 0.00089058065 0.65633339 4281413663
0.027298056 0.0026994389 0.65625 4280887065
0.032783724 0.0034821115 0.65733337 4280163604
0.036759589 0.0034909402 0.65900004 4279703056
-0.085842617 0.0091817835 0.65766674 4278519045
-0.081821397 0.0068943636 0.65700006 4278519299
-0.078132764 0.00502537 0.65600002 4278781956
0.037368983 0.00502537 0.65600008 4279703315
0.042073324 0.005806521 0.65683335 4279637780
0.04737673 0.007672946 0.65719998 4280031767
0.051555004 0.0097205881 0.65900004 4279176201
-0.092271648 0.013318937 0.65733331 4278519044
-0.088209458 0.011743433 0.65600002 4278650631
0.049719408 0.012763209 0.65533334 4279505423
0.051424611 0.012802162 0.65733337 4279045129
-0.10107137 0.01906506 0.65900004 4278453506
-0.097684823 0.01771654 0.65716666 4278453506
-0.094409965 0.015877625 0.65600002 4278584578
0.049694117 0.01740138 0.65500003 4279571213
0.051476773 0.017482655 0.65800005 4278979590
-0.10154215 0.021335045 0.65700001 4278453506
-0.098909929 0.020497298 0.65500003 4278453506
0.049211025 0.022416849 0.65679997 4279768593
0.048052382 0.026980119 0.65671432 4280624160
0.049211025 0.032660317 0.65679997 4279966231
-0.092224851 0.038415764 0.65700001 4278453506
0.051359423 0.036833256 0.65650004 4278979591
-0.088431992 0.042341188 0.65766668 4278519044
-0.084978297 0.043716677 0.65500003 4278584838
-0.085497253 0.045541063 0.65900004 4278782217
-0.082459837 0.046919208 0.65650004 4278716937
0.021830857 0.074675858 0.65500003 4282598714
0.028152615 0.073462836 0.65800005 4282730047
0.031308647 0.073574483 0.65900004 4283256142
0.017241037 0.078526802 0.65700006 4282795587
0.021930847 0.075795412 0.65800005 4282532924
-0.04727 0.081238069 0.65799999 4278783245
-0.044867951 0.081114605 0.65700001 4278717451
-0.030987831 0.082918949 0.65900004 4278914057
-0.027873004 0.082918949 0.65900004 4278913803
-0.022361044 0.0830881 0.65725005 4279045389
-0.018434815 0.083533078 0.65566665 4279374354
0.009476033 0.084219977 0.65700001 4280362276
0.012590151 0.082190894 0.65733337 4281151276
-0.016563637 0.086325213 0.65825003 4279440918
-0.012254946 0.087541811 0.6566667 4279440917
-0.0076035052 0.088878036 0.65700001 4279703319
-0.0029416725 0.088787854 0.65633333 4279835162
0.0023351966 0.08800102 0.65740001 4279836186
0.0069027296 0.086465873 0.65833336 4280230947
-0.0060692392 0.090706013 0.65900004 4279441174
-0.0029544153 0.090706013 0.65900004 4279835932
-0.045869071 -0.11155932 0.66400003 4279835160
-0.042176545 -0.11173725 0.66350007 4279703576
-0.037437364 -0.11241862 0.66288894 4279900955
-0.032715611 -0.11234379 0.66244447 4279638553
-0.027999891 -0.11226945 0.66200006 4279901725
-0.022518074 -0.11224079 0.66183335 4280099104
-0.017059565 -0.11234377 0.66244447 4283058501
-0.012602034 -0.11203734 0.66328579 4280953898
-0.009253745 -0.11103625 0.66400003 4280428584
-0.050576761 -0.10685164 0.66400003 4279506448
-0.046798512 -0.10762907 0.66233337 4279703827
-0.042231265 -0.10783442 0.6608572 4279637526
-0.037678607 -0.10845885 0.66025001 4279834904
-0.032594625 -0.10880759 0.66000003 4279769112
-0.029475076 -0.10880758 0.66000003 4280098077
-0.016996875 -0.10880759 0.66000003 4283386942
-0.012135984 -0.10756613 0.66075003 4281347881
-0.0078647267 -0.10749999 0.66275007 4280493348
-0.0045460598 -0.10632857 0.66400003 4280625448
-0.052912097 -0.10218342 0.66328573 4279374353
-0.04877473 -0.10321909 0.66083336 4279374608
-0.010757774 -0.10412825 0.66000003 4280426782
-0.0071263681 -0.10321909 0.66083342 4280427039
-0.0039142603 -0.10278396 0.66340005 4280493089
-0.056330595 -0.096913189 0.66400003 4279243022
-0.053178895 -0.097701967 0.66137505 4279308558
-0.0060784491 -0.099448927 0.66000003 4280229917
-0.0029657374 -0.097680241 0.66211116 4280164124
-0.056890421 -0.091781043 0.66320002 4278914571
-0.053679083 -0.092476614 0.6603334 4278979850
-0.0020256261 -0.092726678 0.66100007 4280164124
0.00016150385 -0.091352642 0.66350007 4280164124
-0.062192224 -0.086288542 0.66375005 4279046415
-0.057708152 -0.087206304 0.66177779 4278914571
-0.054431479 -0.088530503 0.66000003 4279243022
0.0014677692 -0.087300159 0.66250008 4280229914
-0.075945958 -0.08122091 0.66400003 4279571727
-0.071915202 -0.081882812 0.66300011 4279637520
-0.06713549 -0.082571357 0.66222227 4279309071
-0.062356863 -0.083240293 0.66133338 4279046416
-0.059110809 -0.083851174 0.66000003 4278783498
0.0038091175 -0.082979925 0.66133338 4280229657
0.0069551505 -0.081662439 0.66333336 4280163864
-0.081438251 -0.076513223 0.66400003 4279571727
-0.07794328 -0.077726379 0.66262507 4279637520
-0.073213123 -0.078348756 0.66057152 4279637520
-0.068469457 -0.079171851 0.66000003 4279637520
0.0084954919 -0.078271158 0.66116673 4280097815
0.01165811 -0.076959483 0.66333336 4280032024
-0.082491644 -0.072481424 0.66300011 4279637520
-0.07883615 -0.073311947 0.66060007 4279571727
0.012679179 -0.072705746 0.66200006 4280097815
-0.086145937 -0.065528624 0.66400003 4280032278
-0.082891993 -0.067431912 0.66149998 4279900948
0.013835577 -0.067600444 0.66125005 4283056954
0.01585391 -0.065528624 0.66400003 4282070323
-0.086691916 -0.062219482 0.66216666 4280229401
-0.084067211 -0.063574098 0.66000003 4280098071
0.014198628 -0.062794209 0.66000003 4281873717
0.016210403 -0.061858099 0.66250002 4282860349
-0.090853624 -0.056113251 0.66400003 4280427296
-0.087823831 -0.05768327 0.66142863 4280361503
0.017372549 -0.057507794 0.66200006 4283648057
-0.091344491 -0.052581646 0.66300005 4280098331
-0.088457435 -0.052325562 0.66075003 4279900952
0.018164018 -0.052841436 0.66233337 4280621580
-0.091552719 -0.047436766 0.66337508 4279242763
-0.087922655 -0.047470842 0.66112506 4278979590
0.017969845 -0.047561411 0.66237503 4278847748
-0.090853624 -0.043559428 0.66400003 4278519299
-0.087061562 -0.042795341 0.66300005 4278782214
-0.082966492 -0.04196598 0.66088891 4278519300
0.014198628 -0.040177468 0.66000003 4279045643
0.016580341 -0.042620782 0.66162503 4278914057
-0.086145937 -0.038067125 0.66400003 4278519299
-0.082787603 -0.037181903 0.66222227 4278453507
-0.079387888 -0.037057918 0.66000003 4278519044
0.014198628 -0.037057918 0.66000003 4279243022
0.016614648 -0.037226364 0.66300005 4279111436
-0.082418285 -0.032742597 0.66285717 4278453506
-0.07902801 -0.032000326 0.66025007 4278979850
0.013176312 -0.031898763 0.66083336 4279571987
0.016467277 -0.03285829 0.66340005 4279374609
-0.081920445 -0.028898517 0.66366673 4278848009
-0.078187585 -0.027560819 0.66137499 4279571730
0.0036719795 -0.026539337 0.66025001 4279242767
0.0081933644 -0.027287904 0.6608572 4279571987
0.012496839 -0.028009357 0.66275007 4279900952
0.01585391 -0.02943637 0.66400003 4279900952
-0.077624373 -0.022936553 0.66325003 4279571216
-0.074152566 -0.022727968 0.66060007 4279571216
0.0027172486 -0.023184365 0.66063637 4278782471
0.0079913978 -0.023108814 0.66255569 4279637521
0.0116693 -0.02289792 0.66400003 4279834642
-0.075133041 -0.017659619 0.66375005 4279637262
-0.072219245 -0.017326452 0.66100001 4279571469
0.0048399777 -0.019900391 0.66000003 4278913543
0.0083224596 -0.018202323 0.66122222 4279176714
0.011763844 -0.016554389 0.66340005 4279374350
-0.075525351 -0.011778557 0.66375005 4279176713
-0.072497807 -0.012123301 0.66116673 4279110921
0.0095193032 -0.013661291 0.66000003 4279769620
0.012433543 -0.012153466 0.66283339 4279571983
-0.076281078 -0.0078538563 0.66350007 4279308301
-0.073885418 -0.0071210079 0.66100007 4279374094
0.014241655 -0.0090091825 0.66200006 4279769106
0.015794219 -0.0066591701 0.66150004 4280229399
-0.077685691 -0.002530725 0.66257143 4279505935
-0.074708559 -0.0035227509 0.66000003 4279374349
0.017383778 -0.0035378672 0.66250002 4283058745
0.020499663 -0.0011866733 0.66200006 4281544990
-0.082340531 0.0024654882 0.66283339 4278848264
-0.079027556 0.0008981608 0.66133338 4279505934
0.023592973 0.00037725779 0.66100001 4281413663
0.027686397 0.0010016245 0.66180003 4280821271
0.032965805 0.001939396 0.66100001 4280162835
0.038070649 0.0023308073 0.66150004 4279374092
0.042403474 0.0027226117 0.662 4279571473
0.046793997 0.0031211465 0.66325003 4280098071
0.050376937 0.0035174268 0.66400003 4279834899
-0.09194386 0.0091494219 0.66280001 4278519299
-0.087674133 0.0073036361 0.66200006 4278453508
-0.083632208 0.0055810451 0.6606667 4278453251
0.047770549 0.005059843 0.66050005 4280953637
0.051986441 0.0070257802 0.662 4279045384
0.05508462 0.0097943405 0.66400003 4278913543
-0.10011799 0.014480186 0.66300005 4278453506
-0.09717226 0.012901613 0.66250002 4278584578
-0.09347304 0.011820744 0.6603334 4278519042
0.053219873 0.012860593 0.66033334 4279044872
0.05508462 0.012932797 0.66400003 4279110665
-0.10654591 0.019209711 0.66400003 4278453506
-0.10309733 0.017585997 0.66200006 4278387713
-0.098960578 0.015986541 0.66050005 4278519042
0.05330047 0.017570425 0.66133338 4278979591
0.05508462 0.016855869 0.66400003 4279110921
-0.10450239 0.020685058 0.66100001 4278453506
0.052547053 0.022270819 0.66166669 4279110919
0.051134497 0.027270487 0.66159999 4279110921
0.05143081 0.031950645 0.66140002 4279110922
0.05351539 0.036471225 0.66400003 4278913543
-0.090579972 0.042619381 0.66200006 4278519045
-0.088881001 0.044117134 0.66100001 4278519045
-0.086668715 0.046530634 0.66200006 4278650630
-0.083542079 0.048877388 0.66200006 4278782215
-0.081070311 0.051147941 0.66100001 4281216298
0.01731818 0.079925224 0.66000003 4282861123
0.02208201 0.07788004 0.66250002 4282927170
0.025976598 0.07547392 0.66200006 4282466874
-0.052329786 0.081855386 0.66300005 4278783245
-0.049752157 0.081484996 0.66000003 4278783245
-0.042187143 0.083506137 0.66366673 4278783244
-0.037386905 0.083296426 0.66200006 4278783242
-0.033374514 0.083044767 0.66000003 4279045643
-0.027238792 0.084925026 0.66250002 4278848010
-0.023248499 0.084647276 0.6603334 4278979596
0.012665964 0.084253967 0.66133338 4280953642
0.017005773 0.081855975 0.66300005 4282992193
-0.031222943 0.085901916 0.66400003 4278914057
-0.027848566 0.087321758 0.66371435 4278782729
-0.022522978 0.087980039 0.66191673 4279045389
-0.017325226 0.088741139 0.66060001 4279505940
-0.013877326 0.089283876 0.66000003 4279572760
0.0040600901 0.089283876 0.66000003 4280230689
0.0084987246 0.088446148 0.66150004 4280690728
0.01207769 0.087235421 0.66340005 4281282864
-0.021407647 0.091752119 0.66375005 4279045646
-0.016878275 0.09262906 0.66300005 4279571733
-0.012340624 0.092576131 0.66122222 4279703576
-0.0078424672 0.092704587 0.66074997 4279835162
-0.002959999 0.093230762 0.66033334 4280163870
0.0021958877 0.092344187 0.66180003 4280361506
0.007218305 0.091325402 0.66350007 4280953386
-0.015530658 0.096101902 0.66400003 4279703319
-0.012375115 0.095957182 0.66300005 4279704346
-0.0076798708 0.09605366 0.66366673 4279967518
-0.0045460598 0.096101902 0.66400003 4279704346
-0.052011639 -0.12241266 0.66899997 4280033051
-0.047250837 -0.1221038 0.66874999 4280163870
-0.04250418 -0.12182518 0.66866666 4280164383
-0.037745371 -0.1212377 0.66833335 4280164897
-0.0330391 -0.12135863 0.66899997 4279967518
-0.027505443 -0.12135863 0.66900003 4280361506
-0.023552831 -0.12135863 0.66900003 4280295456
-0.056931783 -0.11696688 0.66875011 4279769623
-0.051960073 -0.11807927 0.66833341 4279704600
-0.047143415 -0.11788404 0.66722226 4279835674
-0.04239824 -0.11784478 0.66700006 4279901469
-0.037669286 -0.11784477 0.66700006 4280033311
-0.032918904 -0.11776678 0.66655558 4279835932
-0.027615095 -0.11789227 0.66645455 4280164897
-0.022194143 -0.11754682 0.66619998 4280230690
-0.017162576 -0.1177474 0.66644448 4281414194
-0.012651934 -0.11771389 0.66737509 4280296486
-0.0081277816 -0.11687943 0.66825008 4280230950
-0.0045802919 -0.11503445 0.66900003 4280889905
-0.057411734 -0.1120378 0.66827285 4279703573
-0.051839665 -0.11307735 0.66677779 4279703573
-0.047557246 -0.11341316 0.66566664 4279835160
-0.042271107 -0.11434665 0.66500002 4279770139
-0.011633218 -0.11443263 0.66550004 4280560428
-0.0075126304 -0.11318497 0.66624999 4280428841
-0.0033095554 -0.11138894 0.66800004 4280757547
-0.06253662 -0.10657591 0.66883332 4279374354
-0.057644568 -0.10734142 0.66763645 4279440403
-0.052949443 -0.10800543 0.66587496 4279571987
-0.0061244979 -0.10963188 0.66500002 4280493862
-0.0027611798 -0.10761686 0.66642857 4280691496
0.0001628426 -0.10554818 0.66900003 4280690468
-0.063037843 -0.10231833 0.66855568 4279243025
-0.058124244 -0.10201278 0.66655552 4279374353
-0.054058045 -0.10413131 0.66500002 4279308561
-0.0018036807 -0.10263682 0.66550004 4280493346
0.00055786036 -0.10183838 0.66800004 4280493089
-0.062835068 -0.097767316 0.66850013 4279309074
-0.058876917 -0.097229816 0.66616672 4279243279
0.00095213106 -0.097375773 0.66716671 4280361757
-0.066982061 -0.091250539 0.66850007 4279177743
-0.062788218 -0.092564523 0.66800004 4279046416
-0.059232891 -0.092842601 0.66575003 4279046670
0.0020037976 -0.092644848 0.66716671 4280229660
-0.076922819 -0.087130412 0.66839999 4279637777
-0.072169244 -0.087500587 0.66742855 4279571984
-0.067608863 -0.087880343 0.66688889 4279374607
-0.06311135 -0.08870621 0.66600001 4279046670
0.0042627226 -0.088236175 0.66720003 4280295450
0.0064773257 -0.086446233 0.66800004 4280426522
-0.085939825 -0.08177194 0.66850007 4279834900
-0.082158968 -0.082887746 0.66730011 4279703313
-0.077186875 -0.083490215 0.66600001 4279637520
-0.072168291 -0.084528752 0.66533333 4279637520
0.0083543863 -0.083430044 0.66660005 4280229143
0.012397381 -0.081710786 0.6680001 4280295194
0.015973292 -0.080251463 0.66900003 4280229149
-0.087476641 -0.076994136 0.66816664 4279900691
-0.083423287 -0.077895045 0.66574997 4279769106
-0.079989307 -0.079771638 0.66500002 4279769106
0.013272415 -0.078015722 0.66566664 4280097818
0.015949415 -0.076974146 0.66800004 4280032025
-0.087346114 -0.072148375 0.66716671 4279834643
-0.084704086 -0.072699472 0.66500002 4279637266
0.014306194 -0.07348527 0.66500002 4279966745
0.016562261 -0.071836323 0.66720003 4280360986
-0.088310577 -0.067598633 0.667 4280032020
0.016862724 -0.067675374 0.66659999 4285226835
-0.09179619 -0.062371343 0.66800004 4280360987
-0.089463681 -0.062516235 0.66533333 4280360987
0.018298348 -0.062694356 0.66724998 4284372556
-0.096280895 -0.056535792 0.66900003 4280295710
-0.092802338 -0.057918273 0.66671431 4280295710
0.01903527 -0.058599763 0.66550004 4288253561
0.02068546 -0.057240624 0.66800004 4289305222
-0.096639611 -0.051965848 0.66783339 4280032794
-0.093882293 -0.053527847 0.66600001 4280164124
0.021574968 -0.05280935 0.66757149 4280884750
-0.097652748 -0.046948202 0.66755557 4279900949
-0.09413363 -0.047554005 0.66500002 4279506448
0.021890026 -0.047449932 0.66722226 4278913028
-0.1105103 -0.043096911 0.66900003 4281413678
-0.1073482 -0.043887433 0.66900003 4281018665
-0.1033956 -0.043887433 0.66900003 4280097817
-0.097555786 -0.042456001 0.66825008 4278848005
-0.092951059 -0.041942462 0.66637504 4278650371
-0.089486092 -0.041298077 0.66550004 4278716678
0.019030504 -0.042073727 0.66533333 4278848264
0.021454155 -0.042200599 0.66733342 4278979593
-0.096280895 -0.0391443 0.66900003 4278584578
-0.092800267 -0.037710868 0.66812509 4278650630
-0.088410877 -0.037161596 0.66585714 4278585092
0.019049572 -0.03739481 0.66600001 4279111436
0.021491466 -0.037535179 0.66850001 4279900441
-0.091537759 -0.033610642 0.66900003 4278650631
-0.088127717 -0.032727189 0.6671111 4278650630
-0.084704086 -0.031838089 0.66500002 4278453506
0.018649524 -0.032267779 0.66575003 4279571217
0.02068546 -0.032771062 0.66800004 4281872433
-0.087812066 -0.028266203 0.66814291 4278519045
-0.083762117 -0.027419431 0.66583329 4278650630
0.014306194 -0.026337519 0.66500002 4279966999
0.017687254 -0.027775023 0.66649997 4279834643
0.020706104 -0.028062208 0.66866666 4280426012
-0.08569815 -0.023058319 0.66866666 4278453251
-0.082110144 -0.022156235 0.66690004 4279242253
-0.079203516 -0.021622743 0.66500002 4279702802
0.013793086 -0.021900931 0.66549999 4279505676
0.017193023 -0.0227977 0.66720009 4279308555
0.020716427 -0.024914894 0.66900003 4279439633
-0.08194378 -0.016986808 0.66811115 4279110922
-0.077710144 -0.016924525 0.66566664 4279571727
0.01392943 -0.017319936 0.66575003 4279571213
0.016344678 -0.017379506 0.66800004 4279966226
-0.08194378 -0.0122505 0.66811121 4278913543
-0.077859834 -0.012518512 0.6656 4279308556
0.014327707 -0.012998505 0.66600001 4279965967
0.015941456 -0.012242876 0.66766673 4280557334
-0.081862286 -0.007506696 0.66744447 4279242509
-0.078457028 -0.0074829538 0.66533333 4279374094
0.016960502 -0.0074926242 0.66633338 4280163349
-0.085545167 -0.0023835176 0.66850001 4278782214
-0.082240067 -0.0029968866 0.66685718 4279440143
-0.079989307 -0.0027636425 0.66500002 4279637520
0.019092476 -0.0035645547 0.66750002 4282927417
0.022229237 -0.0017226511 0.66700006 4281742627
0.027014447 -0.0011980262 0.66833335 4281018907
0.032548737 -0.001198325 0.66850007 4280425237
0.038069945 -0.0011980262 0.66833335 4279702285
0.042029686 -0.001198325 0.66850007 4279308555
-0.091537759 0.0035439134 0.66900003 4278387713
-0.087965444 0.0021536634 0.66737503 4278453251
-0.084349275 0.00090495334 0.66633338 4278848008
0.032379501 0.00037954072 0.66500002 4280162578
0.037899848 0.00037973098 0.66533333 4279570957
0.042658895 0.00038011148 0.66600001 4279308555
0.047752939 0.0010096773 0.66680002 4279440141
0.052206147 0.0022191226 0.6673333 4279111176
0.056248456 0.0035412647 0.66850007 4279045383
-0.10102403 0.0098680928 0.66900003 4278453506
-0.097044729 0.0087865312 0.66700006 4278453506
-0.092817612 0.0064207767 0.66683334 4278453506
-0.088700294 0.0050981464 0.66550004 4278519044
0.053595986 0.0050943159 0.66500002 4278979590
0.056235261 0.0071356567 0.667 4279045128
-0.10560907 0.014589388 0.66800004 4278453506
-0.10229833 0.012989203 0.667 4278453506
-0.098997056 0.011397797 0.66600001 4278387713
0.056909818 0.01299123 0.66700006 4279110665
-0.10650263 0.016669303 0.667 4278453506
0.056538247 0.018119723 0.66725004 4279045386
0.055749491 0.022063473 0.66725004 4279044872
0.053676579 0.027137347 0.66600001 4279045127
0.055499412 0.025678542 0.66900003 4279242248
0.053730313 0.031890314 0.66666669 4279045129
0.053676579 0.035007119 0.66600001 4278979336
-0.090990447 0.044384107 0.66500002 4278519045
-0.08802104 0.047624949 0.66633338 4278585093
-0.083132491 0.050670475 0.66500002 4281282091
0.023771437 0.079077862 0.66600001 4282598205
0.026967853 0.077644974 0.66719997 4282466876
0.03167446 0.076005958 0.66666669 4283058505
-0.052640762 0.08313857 0.66700006 4278783245
-0.047058109 0.08379972 0.66600007 4278783245
0.01856227 0.083442837 0.66733336 4283716683
0.021862913 0.081258409 0.66775006 4283453513
-0.042171966 0.086313285 0.66839999 4278783244
-0.037695695 0.087137267 0.66744447 4278717450
-0.033340983 0.087173164 0.66599995 4278848777
-0.028912578 0.089174479 0.66500002 4278651912
0.013810228 0.088041253 0.66633338 4281677621
0.016338117 0.086783201 0.66775 4282400827
-0.036964655 0.090433747 0.66850007 4278651658
-0.032645293 0.09091641 0.6674 4278651913
-0.028010227 0.092381947 0.66687506 4278717449
-0.022488756 0.093502715 0.6656 4278914316
-0.018697232 0.094675042 0.66500002 4279440147
0.004094515 0.094746225 0.66550004 4279967518
0.0084265573 0.092850566 0.66600001 4280624676
0.012783659 0.091087222 0.66750002 4281084971
-0.025905613 0.095173337 0.66850007 4278783244
-0.021938944 0.096154608 0.66800004 4278783244
-0.017498033 0.09751226 0.66719997 4278979853
-0.012429527 0.097965322 0.66600001 4279112209
-0.0085259359 0.098333061 0.66850007 4279112209
-0.0021965785 0.096318997 0.66550004 4279505940
0.00095312163 0.096680835 0.66800004 4279374354
0.0064773257 0.095102154 0.66800004 4279441174
-0.042810827 -0.13132739 0.67350006 4280624675
-0.037746042 -0.13118568 0.67400002 4280690468
-0.03264888 -0.13054852 0.67400002 4280689954
-0.028507445 -0.13022995 0.67400002 4280887333
-0.050505977 -0.12629026 0.67000002 4280229917
-0.046960376 -0.12673382 0.67025006 4280295455
-0.042707823 -0.12803331 0.671875 4280295967
-0.038185932 -0.12782922 0.67214286 4280427041
-0.032428455 -0.12760445 0.67275 4280361504
-0.026874129 -0.12685733 0.67300004 4280624420
-0.022306371 -0.12668197 0.67312503 4280492835
-0.017540723 -0.1267288 0.67337501 4281479729
-0.013103564 -0.12645124 0.67366672 4280887337
-0.008331201 -0.12598233 0.67400002 4280690984
-0.067332156 -0.12031471 0.67200005 4280427296
-0.062848106 -0.12048675 0.67075002 4280164381
-0.055256199 -0.12154003 0.67000002 4279901979
-0.052089382 -0.12338734 0.67000002 4280098331
-0.04733916 -0.12375681 0.67000002 4280163870
-0.04259913 -0.12368227 0.67016667 4280164384
-0.037838709 -0.12391514 0.67000002 4280099104
-0.033113178 -0.1240082 0.67049998 4280163870
-0.028030511 -0.12347734 0.67019999 4280295456
-0.021707652 -0.12260034 0.67060006 4280098077
-0.017275469 -0.12248486 0.67083335 4281479729
-0.012534101 -0.12263683 0.67166662 4280296484
-0.0075855213 -0.12221652 0.67262501 4280296742
-0.0038146707 -0.12058327 0.67350006 4280363561
-0.072284609 -0.11664706 0.67375004 4280361503
-0.068104744 -0.11709996 0.67177778 4280295710
-0.062444791 -0.11730188 0.67066669 4279966746
-0.057235457 -0.11837322 0.67000002 4279770136
-0.01092077 -0.11995662 0.67000002 4280033572
-0.0077539547 -0.11890102 0.67000002 4280099620
-0.0030110085 -0.11713912 0.67200005 4280758062
-0.076293282 -0.11191205 0.67400002 4280229659
-0.073048614 -0.11261584 0.67344445 4280032279
-0.06805969 -0.11226308 0.67133337 4279703572
-0.062866226 -0.11221489 0.67010009 4279703573
-0.0019495381 -0.11320826 0.67066669 4280954926
0.00056209241 -0.11218603 0.67325002 4281612596
-0.076293282 -0.10792991 0.67400002 4279571987
-0.073000669 -0.10776976 0.67300004 4279308815
-0.067958042 -0.10734327 0.67033339 4279177230
-0.06422884 -0.10834497 0.67000002 4279374352
0.0017544085 -0.10760895 0.67199993 4281479724
-0.076293282 -0.10315131 0.67400002 4279703314
-0.072939888 -0.10291351 0.67244446 4279046157
-0.067923456 -0.10253913 0.67000002 4278914831
0.0033425433 -0.10284388 0.67200005 4280887587
-0.076293282 -0.095983438 0.67400002 4279637777
-0.073116407 -0.097850062 0.67259997 4279177485
-0.067934997 -0.097804867 0.67011112 4278914830
-0.064756647 -0.096205503 0.67000002 4279178002
0.0041322126 -0.098008633 0.67149997 4280558622
0.0065355054 -0.096779861 0.67400002 4280690207
-0.082236446 -0.090773106 0.67375004 4279637777
-0.077721402 -0.091807626 0.67257148 4279506192
-0.072611347 -0.093015231 0.67124999 4279308812
-0.06816449 -0.093511268 0.67014283 4278980621
-0.064756647 -0.094622098 0.67000002 4279112209
0.0045229588 -0.093539871 0.67075002 4280360989
0.0075857057 -0.091312267 0.67283344 4280426781
-0.091358237 -0.085566312 0.67350006 4279900952
-0.086994708 -0.086548783 0.67228574 4279769363
-0.082276739 -0.087606572 0.67083335 4279703314
-0.077423915 -0.08908017 0.67000002 4279440655
-0.073465392 -0.089871876 0.67000002 4279505935
0.0086239697 -0.087385796 0.67116666 4280558107
0.012682694 -0.086848013 0.67262495 4280492314
0.016615668 -0.086118437 0.67366672 4280294935
-0.09540762 -0.081647679 0.67400002 4280163867
-0.091965027 -0.082214385 0.67211109 4279966744
-0.088144943 -0.082381852 0.67025 4279900694
0.013885956 -0.083010435 0.67000002 4280360986
0.01783305 -0.082399465 0.67200005 4280031766
0.021391889 -0.08134222 0.67366672 4279966231
-0.095407628 -0.07766553 0.67400002 4280229657
-0.091812991 -0.077319831 0.671 4280098070
0.018396117 -0.077300243 0.67083335 4279834646
0.021253988 -0.078005537 0.67350006 4279900695
-0.095805839 -0.072488725 0.67400002 4280098071
-0.091812991 -0.072562523 0.671 4280097556
0.018803887 -0.072985999 0.67125005 4279900437
0.020871257 -0.072886944 0.67400002 4279703316
-0.096443929 -0.067809306 0.67328578 4280032535
-0.092582285 -0.067788757 0.67083335 4279966483
0.019173518 -0.06773863 0.67033339 4283451196
0.020860935 -0.068075471 0.67366672 4282926139
-0.10018621 -0.062533349 0.67400002 4280229662
-0.097580254 -0.063190021 0.67250007 4280164124
-0.094264656 -0.063308671 0.67040002 4280163864
0.019163983 -0.064537339 0.67000002 4284636499
0.021896645 -0.062424909 0.67283338 4288056450
-0.10146365 -0.056930557 0.67366672 4280690470
-0.097949527 -0.05762371 0.67114288 4280295711
-0.094841398 -0.059787117 0.67000002 4280361503
0.022838278 -0.057886463 0.67157143 4290491810
0.025649842 -0.056161899 0.67400002 4283187755
-0.10771278 -0.050966337 0.67375004 4280822054
-0.102982 -0.051885344 0.67275006 4280690468
-0.099307261 -0.052325174 0.67075002 4280229916
0.023938006 -0.051923264 0.67066669 4279898887
0.027014757 -0.051923171 0.67325008 4279833609
-0.11067548 -0.045536444 0.67000002 4281282605
-0.10743079 -0.046975851 0.67075002 4280822055
-0.10279279 -0.047136009 0.67022228 4280295710
0.023914209 -0.045536444 0.67000002 4278847750
0.027154459 -0.047245406 0.67177778 4278979078
0.031065568 -0.047082592 0.67400002 4279044872
-0.11084067 -0.040847093 0.671 4281216044
-0.10755485 -0.041934617 0.67028576 4280755492
-0.10253225 -0.041917227 0.67000002 4279703059
-0.099591635 -0.040786218 0.67000002 4278650371
0.023914209 -0.042369623 0.67000002 4279045386
0.027158685 -0.042488817 0.67188895 4278781958
0.031810891 -0.042805586 0.67374998 4278848007
-0.11170121 -0.038847391 0.67300004 4281216045
-0.10774025 -0.038232569 0.67285717 4280097561
-0.10304867 -0.037723619 0.67188895 4278716164
-0.098280169 -0.03744866 0.67050004 4278518786
-0.094841398 -0.036035992 0.67000002 4278847496
0.023938002 -0.037656043 0.67066669 4284110683
0.027194614 -0.037774846 0.67277777 4283583824
0.030428424 -0.039436858 0.67400002 4278979336
-0.10122335 -0.033587795 0.67383337 4278518787
-0.097208522 -0.032753423 0.67228568 4278584324
-0.093545489 -0.032877352 0.67016673 4278716424
0.02314035 -0.032893706 0.67050004 4287859860
0.026749207 -0.03324357 0.67299992 4283122766
-0.0963144 -0.028060898 0.67337501 4278716424
-0.09214367 -0.027370578 0.67110002 4278782217
0.02314035 -0.028139936 0.67050004 4280359967
0.026408218 -0.02744961 0.67299998 4279439637
-0.09540762 -0.023508243 0.67400002 4278782217
-0.09184581 -0.022179803 0.6724 4278716423
-0.088001989 -0.022054246 0.67016673 4278453507
0.019163983 -0.020993616 0.67000002 4279308556
0.022521701 -0.022404583 0.67136359 4279439634
0.026271764 -0.022220477 0.67360008 4279308561
-0.091651201 -0.01734188 0.67314285 4278519045
-0.086997762 -0.017048959 0.67055559 4278519043
0.018564943 -0.016747979 0.67120004 4280229657
0.022042088 -0.018310603 0.67325002 4279702806
-0.091358237 -0.012349046 0.67350006 4278584324
-0.08701244 -0.012297095 0.67066669 4278584324
0.01804439 -0.012728926 0.67250007 4281149727
-0.091291003 -0.0075683836 0.67300004 4278519044
-0.086997762 -0.0075411564 0.67055559 4278519044
0.01867432 -0.0075488524 0.67133331 4279965714
-0.09540762 -0.0012081839 0.67400002 4278519299
-0.092041038 -0.0027962921 0.67266661 4278519299
-0.087900832 -0.0031024073 0.67020005 4278519042
0.022423048 -0.0035910998 0.67275 4282729527
0.027242703 -0.0028010451 0.67400002 4282861625
0.031956363 -0.0027955044 0.67266673 4281675817
0.03752628 -0.0035922814 0.67275 4280359445
0.043288384 -0.0032500371 0.67228574 4279768849
0.047815785 -0.0027960839 0.67211115 4279769106
0.052401025 -0.0023429622 0.67271435 4279242508
0.057138246 -0.001844253 0.67340004 4278979336
0.060692791 -0.0012081839 0.67400002 4279045129
-0.10018621 0.0035704002 0.67400002 4278453506
-0.096856959 0.0022389002 0.67300004 4278453506
-0.092678823 0.0017410219 0.67071432 4278519299
0.053207256 0.00038239441 0.67000002 4278979590
0.057503369 0.0015154843 0.67128575 4278979336
0.061293919 0.0022944647 0.67360008 4279045386
-0.10655765 0.0099418461 0.67400002 4278387713
-0.1026205 0.0076223654 0.67255557 4278387714
-0.098413147 0.0064044148 0.67060006 4278387713
-0.094841398 0.0051326188 0.67000002 4278519299
0.058771107 0.007509646 0.67025006 4279045129
0.060939323 0.0070657306 0.67320007 4279045386
-0.11133623 0.01472043 0.67400002 4278453506
-0.1071311 0.012761305 0.67160004 4278387713
-0.10434186 0.011466252 0.67000002 4278453506
0.058749188 0.013049659 0.67000002 4279045129
0.060602743 0.013108092 0.67300004 4279110922
-0.11100587 0.017853018 0.67200005 4278453506
-0.10917349 0.017020281 0.67050004 4278453506
0.058807645 0.017818382 0.67066669 4279045386
0.060662776 0.017898085 0.67366672 4279045129
0.058255654 0.022921588 0.67160004 4278979336
0.060692791 0.021888305 0.67400002 4279045129
0.057088319 0.027387829 0.67216665 4279045127
0.055720638 0.032131072 0.67166668 4278913800
0.055706806 0.036089107 0.67150003 4279045129
-0.09620405 0.044188365 0.67400002 4278519299
-0.091357052 0.048931219 0.67350006 4278519299
-0.086125083 0.051734801 0.67200011 4280755491
-0.08375755 0.052634865 0.67000002 4282400572
0.027872728 0.079552799 0.67000002 4282532926
0.032126825 0.078312062 0.67066669 4283453774
0.03592154 0.077467442 0.67250001 4284638303
-0.053001255 0.08449176 0.67150003 4278849038
0.022703644 0.083870038 0.67160004 4282730043
0.026775526 0.081806898 0.67225003 4282466876
0.032021284 0.080824174 0.67400002 4283585359
-0.051288206 0.086844683 0.67333335 4278783244
-0.04744279 0.087659992 0.67144448 4278717451
-0.043001268 0.088690639 0.67025006 4278717451
0.018575441 0.087998256 0.67160004 4282268983
0.021381566 0.086844683 0.67333335 4282466361
-0.046791203 0.09111014 0.67350006 4278783245
-0.042508032 0.09208262 0.67228574 4278783245
-0.038163077 0.092911474 0.67171431 4278717451
-0.033522557 0.093512625 0.67075002 4278717451
0.01326267 0.093652055 0.67175001 4279703059
0.016575087 0.091437392 0.67199999 4280887589
-0.036471751 0.095956363 0.67400002 4278717451
-0.032453738 0.0962478 0.67325002 4278717451
-0.027349604 0.096948795 0.67166668 4278717451
-0.022434505 0.09830495 0.671 4278782731
-0.0061705466 0.098553702 0.67000002 4279178002
-0.0030081326 0.098749839 0.67133331 4279308818
0.0025428208 0.098055594 0.67200005 4279374354
0.00810064 0.096431285 0.67175007 4279637524
0.011297303 0.09581399 0.67300004 4279965717
-0.021324329 0.10066021 0.67350006 4278848264
-0.017273149 0.10023674 0.67066669 4278782729
-0.012521267 0.10028657 0.671 4278783244
-0.0093931081 0.10073494 0.67400002 4278980623
-0.036579978 -0.13540916 0.67600006 4281611570
-0.031034261 -0.13560946 0.67700005 4281084455
-0.027854323 -0.13570961 0.67750001 4281019174
-0.023869686 -0.13580978 0.67800003 4280887587
-0.037323475 -0.13361362 0.67500001 4280822054
-0.032457788 -0.13307102 0.67571437 4280821540
-0.026799448 -0.13243903 0.67612505 4281018919
-0.02240549 -0.13204022 0.67612505 4280887589
-0.017399549 -0.13055199 0.67566675 4281413935
-0.013414953 -0.1306164 0.67600006 4281018665
-0.0086349426 -0.13080962 0.67700005 4280952872
-0.020573618 -0.12882794 0.67500001 4280756007
