# .PCD v0.7 - Point Cloud Data file format
VERSION 0.7
FIELDS x y z rgb
SIZE 4 4 4 4
TYPE F F F U
COUNT 1 1 1 1
WIDTH 1031
HEIGHT 1
VIEWPOINT 0 0 0 1 0 0 0
POINTS 1031
DATA ascii
0.037725214 -0.01879984 0.62349999 4284571227
0.042883705 -0.018062491 0.62350005 4284571741
0.047488578 -0.017509775 0.62350005 4284637278
0.050756272 -0.018313298 0.6236667 4284834913
0.0078174267 -0.013796334 0.62380004 4284242518
0.01266709 -0.012896367 0.62308341 4284308567
0.017820172 -0.012894903 0.62300009 4284439898
0.021661988 -0.013492642 0.62340003 4284571485
0.010474765 -0.0099667348 0.62400001 4284440150
0.016373551 -0.0099667348 0.62400001 4284637274
0.026781993 -0.13131139 0.62600005 4284639561
0.013531723 -0.12599461 0.62900001 4283060763
0.017416267 -0.12710582 0.62781823 4282599696
0.022497255 -0.1275212 0.62654549 4283323417
0.027521705 -0.12761281 0.62600005 4283849758
0.032565191 -0.12741108 0.62599999 4285758010
0.037184622 -0.12703101 0.62677777 4284575009
0.042242244 -0.12722588 0.62855554 4288192623
0.013531723 -0.12227833 0.62900001 4282599699
0.017083155 -0.12232251 0.62846667 4282336784
0.022366993 -0.12256575 0.62666672 4282863381
0.027521707 -0.12243483 0.62599999 4283455254
0.032693882 -0.12241337 0.62588888 4285955632
0.037197806 -0.1226299 0.62700003 4284441374
0.041210022 -0.12281102 0.62887502 4286942797
0.013531723 -0.11707553 0.62900001 4283521060
0.017400471 -0.11718897 0.62838465 4282270993
0.022354832 -0.11731929 0.6263333 4282731542
0.027293731 -0.11750674 0.62564284 4283191828
0.032695528 -0.11724115 0.62591666 4285692719
0.03722338 -0.11752153 0.62741667 4283981082
0.013531723 -0.112616 0.62900001 4282467601
0.017223187 -0.11246701 0.62816674 4282204942
0.022354832 -0.11213856 0.62633336 4282665748
0.027700467 -0.11237318 0.62528574 4283389462
0.032699686 -0.11207888 0.62599999 4285627189
0.03721837 -0.11231812 0.6273334 4284113177
0.040288959 -0.11187274 0.62900001 4286613308
0.0075856708 -0.10518343 0.62900001 4283586607
0.013505436 -0.10676327 0.62780005 4282599443
0.017940149 -0.10785129 0.62722224 4282402319
0.022351129 -0.10767908 0.62622225 4282666259
0.027487846 -0.10751163 0.62524998 4283389718
0.032653511 -0.10748803 0.6251111 4285758508
0.037132412 -0.1076223 0.62588888 4284310037
0.041920662 -0.10693529 0.62837505 4286810684
0.0046126451 -0.1022104 0.62900001 4283718204
0.007771485 -0.10221041 0.62900001 4283586857
0.012961042 -0.10233235 0.62714285 4283126558
0.017905256 -0.10246382 0.62599999 4282929436
0.022192793 -0.10259072 0.62554544 4282929689
0.026443798 -0.10392372 0.625 4283653409
0.037078626 -0.10451454 0.625 4285297701
0.042324524 -0.10244228 0.62692314 4286613823
0.0087005552 -0.098122492 0.62900001 4283126303
0.012743845 -0.097427107 0.62691671 4282797337
0.017885858 -0.097181559 0.62533337 4282271252
0.021200234 -0.097498491 0.625 4282139664
0.043119933 -0.097423047 0.62688893 4286152759
0.0090721836 -0.094777837 0.62900001 4283126563
0.01253889 -0.092613026 0.62728578 4282797595
0.017879765 -0.092714526 0.6251111 4282205459
0.020830968 -0.09269806 0.625 4282205716
0.043240577 -0.092623696 0.62650001 4286680133
0.04623501 -0.0903183 0.62900001 4289639802
0.012956786 -0.087490425 0.62699997 4283256878
0.017742572 -0.087729767 0.625 4282796835
0.020830968 -0.089743942 0.625 4282402580
0.042916406 -0.087453604 0.62590909 4287337586
0.046588261 -0.086939529 0.62875003 4288653204
0.0087005561 -0.082514107 0.62900001 4285098851
0.012728891 -0.082513161 0.62616664 4284967007
0.016892144 -0.083343349 0.625 4284835674
0.043049321 -0.082476042 0.62588888 4288520345
0.047233466 -0.082561098 0.62814289 4288915877
0.0046126451 -0.07545317 0.62900001 4285295204
0.0077039558 -0.07732477 0.62772727 4285295204
0.011423107 -0.07780458 0.62550002 4285229411
0.043282278 -0.078813694 0.625 4288190097
0.047678411 -0.077593952 0.62663639 4288848285
0.05150944 -0.076887928 0.62857145 4289374886
0.0038669442 -0.072442129 0.62866664 4285492583
0.0075524617 -0.072173387 0.62633336 4285229155
0.010860818 -0.072757751 0.625 4285097312
0.048335575 -0.072361201 0.62539995 4288452757
0.05232098 -0.072114214 0.62709999 4289176736
0.056618087 -0.071708672 0.62875003 4289637288
-0.0020766635 -0.065790832 0.62900001 4285689708
0.0029530243 -0.067547396 0.62766665 4285360740
0.0075420043 -0.067636371 0.62544447 4285228897
0.010491552 -0.066110983 0.625 4285030748
0.048895106 -0.069065101 0.625 4288452498
0.05307401 -0.067790762 0.62550002 4288847256
0.05797467 -0.067841426 0.62733334 4289505701
0.061595645 -0.066534095 0.62900001 4289505959
-0.0057929456 -0.060588039 0.62900001 4285492843
-0.0028110079 -0.062350757 0.62677783 4285492586
0.0021224685 -0.063706413 0.62555552 4285294435
0.0075374315 -0.064633921 0.625 4285162334
0.054803345 -0.064633921 0.625 4288781718
0.057968639 -0.062702209 0.62581819 4288913308
0.06213681 -0.062119365 0.62777781 4289242532
-0.006520065 -0.057463139 0.62733334 4285427049
-0.0042824703 -0.058034137 0.62550002 4285163878
0.058543384 -0.057294425 0.62550002 4288452757
0.062433977 -0.057472527 0.62744445 4288847515
0.065559678 -0.057615012 0.62900001 4289308323
-0.010252485 -0.050182447 0.62900001 4285755755
-0.0074008321 -0.052648555 0.62650001 4285295463
0.058865257 -0.053186707 0.625 4288058256
0.062507167 -0.052665222 0.62669998 4288387478
0.066037811 -0.051903415 0.62883335 4288716701
-0.010252485 -0.047209423 0.62900001 4285360741
-0.0071170121 -0.047555272 0.62645459 4284900447
-0.0042790468 -0.045432143 0.625 4284768860
0.062442526 -0.047797561 0.62588888 4288123791
0.066768587 -0.046958819 0.62812507 4288781719
0.070019223 -0.045722906 0.62900001 4289242784
-0.010620039 -0.042361856 0.62874997 4285031265
-0.0072547924 -0.042599116 0.62677777 4284834140
-0.0029874756 -0.042301591 0.62512499 4284768603
0.0016291923 -0.041000962 0.625 4284899676
0.067141689 -0.042473279 0.62709999 4288255633
0.070019223 -0.043493137 0.62900001 4288716440
-0.012140735 -0.037260003 0.62771428 4284768861
-0.0072405096 -0.037344415 0.62558335 4284702811
-0.002802558 -0.037313577 0.62508333 4284768090
0.0020512096 -0.037308313 0.625 4284768090
0.062927172 -0.037308313 0.625 4287531912
0.067037836 -0.037584446 0.62676919 4287860878
0.070613824 -0.037695739 0.62900001 4288189586
-0.016198536 -0.032344293 0.62900001 4284769117
-0.012421384 -0.032181654 0.62583333 4284703067
-0.0076024313 -0.033246398 0.625 4284703067
0.062944151 -0.032146778 0.62516665 4287400580
0.066882223 -0.032263514 0.62744451 4287794829
0.070019223 -0.033087552 0.62900001 4287860623
-0.016563728 -0.028244708 0.62875003 4284703327
-0.012421382 -0.027744174 0.62583333 4284571740
-0.008710226 -0.026230365 0.625 4284505948
0.059234522 -0.026968896 0.625 4287005823
0.062333688 -0.027770676 0.62644452 4287400325
0.066091746 -0.028154511 0.62839997 4287795086
-0.016198536 -0.023425212 0.62900001 4284308828
-0.012450465 -0.022619115 0.62731242 4284243034
-0.007375455 -0.022357849 0.62563634 4284308825
-0.0037866936 -0.02081448 0.625 4283914581
0.054310992 -0.02081448 0.625 4285624169
0.057960238 -0.022361666 0.62572724 4286479478
0.06213681 -0.023214264 0.62777776 4287466376
-0.011240778 -0.01796964 0.62883335 4283980117
-0.0072612218 -0.017431797 0.62733334 4283980116
-0.0028062621 -0.017388834 0.62577778 4283980117
0.00064448576 -0.0163833 0.625 4284045909
0.028511683 -0.01648177 0.625 4284308571
0.032647446 -0.016481772 0.625 4284571227
0.037078626 -0.016629478 0.625 4284571484
0.041805219 -0.01618636 0.625 4284505693
0.045940988 -0.015890947 0.625 4284571487
0.053200871 -0.017051332 0.62544447 4285032293
0.057984941 -0.017434623 0.62744445 4285689968
0.06110014 -0.018965675 0.62900001 4287005829
-0.00678242 -0.013511282 0.62883335 4284111187
-0.002814377 -0.012245712 0.6275 4284242516
0.0021981879 -0.012722646 0.62569231 4284177237
0.0071681663 -0.011829033 0.625 4284308566
0.023046557 -0.012198296 0.625 4284571741
0.027508035 -0.012950431 0.62566668 4284769121
0.032853603 -0.012425792 0.62636364 4284900449
0.037172563 -0.012228116 0.62658328 4284966242
0.042336546 -0.012222364 0.62631249 4285097830
0.04749392 -0.012216042 0.62599999 4285163623
0.052237824 -0.012404898 0.62692302 4285557867
0.056307752 -0.013308173 0.6286 4285821298
-0.0023240622 -0.0075668064 0.62883335 4284242773
0.0025199137 -0.0076375622 0.62660003 4284308309
0.0075422605 -0.0077712126 0.62541664 4284439894
0.012860268 -0.007621781 0.62526667 4284505688
0.018016113 -0.0075673158 0.62518179 4284637274
0.022311198 -0.007768055 0.62508333 4284769117
0.027519181 -0.0077785468 0.62593752 4284966239
0.032598756 -0.0073458394 0.62690002 4285097825
0.03721758 -0.0070543033 0.62733334 4285295205
0.042445794 -0.0070604035 0.62791675 4285492585
0.047663044 -0.0070635113 0.62822229 4285624429
0.051163185 -0.0080600427 0.6286667 4285690479
0.0029571527 -0.0029412718 0.62844449 4283848790
0.0075610271 -0.0026051949 0.62700003 4283521113
0.012728873 -0.0026017139 0.62608331 4283456091
0.017902013 -0.0026008401 0.62588888 4283456348
0.022319928 -0.0025980058 0.62533337 4283653983
0.027521705 -0.0026015642 0.62599999 4283982177
0.032740839 -0.0026050592 0.62677777 4284311142
0.03721099 -0.0026069062 0.62722224 4284639336
0.042497184 -0.0026128434 0.62866676 4285230444
0.046606638 -0.00298566 0.62900001 4285493101
0.0046126451 0.00035899418 0.62900001 4280831833
0.0080767618 0.0013498125 0.6286667 4279717472
0.012907472 0.0024364772 0.62760001 4279520866
0.017928895 0.002581422 0.62683326 4279783522
0.022358397 0.0025792147 0.62641662 4279915109
0.027538488 0.0025789938 0.62637496 4280112489
0.032743413 0.0025808313 0.62683332 4280047467
0.037227534 0.0025837719 0.6275 4280179569
0.041888669 0.0022168434 0.62883341 4281032306
0.04623501 0.00035899418 0.62900001 4285100917
0.013531723 0.0063050464 0.62900001 4278195261
0.017248005 0.0070483033 0.62900001 4278594133
0.022432953 0.0070432904 0.62850004 4278529113
0.027631616 0.0070432913 0.62850004 4278526561
0.032841805 0.0073639778 0.62871426 4278263901
0.037315931 0.0070483033 0.62900001 4278529384
0.040288959 0.0070483028 0.62900001 4278196828
0.044819646 -0.12619492 0.63000005 4287600480
0.01146881 -0.12143053 0.63000005 4283323422
0.043924369 -0.12201013 0.63050008 4287666514
0.046953786 -0.12285998 0.63200003 4287337555
0.01206436 -0.11755945 0.63000005 4283257888
0.041939922 -0.11753 0.63144451 4286812229
0.045940071 -0.1175249 0.63371426 4287536207
0.009086608 -0.11279504 0.63000005 4283652393
0.042680304 -0.11304151 0.63137507 4287074887
0.046716321 -0.11239777 0.63299996 4287206738
0.043838918 -0.10885376 0.63016671 4287930190
0.046949591 -0.10694177 0.63060009 4287534946
0.0031311023 -0.10162847 0.63000005 4283587128
0.0061088549 -0.10237291 0.63000005 4283586605
0.047926471 -0.10214429 0.63166666 4288324968
0.0027635607 -0.097752243 0.63141668 4283586615
0.0066067632 -0.097186953 0.63016671 4283258149
0.04798184 -0.097530082 0.63239998 4287731795
0.003647981 -0.092984974 0.63366669 4283586863
0.007608138 -0.092393793 0.63100004 4283323683
0.047935162 -0.092707068 0.63177782 4287667034
0.051097523 -0.091036253 0.634 4288259173
0.0036492031 -0.08676824 0.63383335 4285032796
0.0076154675 -0.087715589 0.63166672 4283783227
0.04873766 -0.087866187 0.63060009 4289113494
0.052347526 -0.087748751 0.63325 4288982170
0.055592515 -0.085042939 0.634 4289309097
0.0025682587 -0.0821376 0.63292307 4285427820
0.006613228 -0.082879573 0.63083339 4285098851
0.049286272 -0.083761953 0.63000005 4289047465
0.052529309 -0.082679532 0.63154548 4289310379
0.056624833 -0.081777446 0.63357145 4289441454
-0.0013440062 -0.077551283 0.634 4285558892
0.0021864192 -0.077409498 0.63172728 4285558891
0.053256612 -0.078054585 0.63000005 4289572268
0.057202119 -0.07714577 0.63190001 4289638061
0.060836665 -0.07680212 0.634 4289638062
-0.0024130302 -0.072562695 0.63342857 4285623915
0.00089846557 -0.072730206 0.6311667 4285624170
0.058313634 -0.073350392 0.63100004 4289703339
0.062519565 -0.072481222 0.63333333 4289768877
0.066080824 -0.070059635 0.634 4289900720
-0.0068313475 -0.066494204 0.63333338 4285689708
-0.0030183885 -0.06793315 0.631625 4285558378
0.00064972282 -0.069158167 0.63033342 4285558635
0.06337034 -0.068079293 0.63125002 4289768877
0.06706138 -0.066758946 0.63314283 4289703342
-0.010325833 -0.061770663 0.63349998 4285690222
-0.0074971607 -0.062508568 0.63150007 4285624172
0.06417504 -0.063662127 0.63000005 4289703342
0.067333065 -0.062337987 0.63166666 4289637292
-0.011069565 -0.057997063 0.63316667 4285690220
-0.008784554 -0.057737935 0.63033342 4285558891
0.06802395 -0.057813477 0.6311667 4289571496
0.070922561 -0.057301529 0.63374996 4289703083
-0.01207104 -0.052465569 0.63209093 4285689963
0.068181694 -0.053020403 0.63033336 4289045667
0.07176657 -0.052264582 0.63259995 4289374634
0.075070798 -0.050581355 0.634 4289572270
-0.016327301 -0.046086363 0.634 4285558636
-0.013288881 -0.047426775 0.63188893 4285624170
0.068641663 -0.04877336 0.63000005 4288979612
0.072747298 -0.04753647 0.63154548 4289243043
0.076569125 -0.047584694 0.634 4289440425
-0.017317209 -0.041819628 0.63366669 4285624172
-0.013452818 -0.043063726 0.63087505 4285361000
0.073213018 -0.042878523 0.63088894 4288913822
0.077142254 -0.04198131 0.63342857 4289242789
-0.02082229 -0.036347225 0.634 4285427049
-0.017619355 -0.037273183 0.63190001 4285295462
-0.014735415 -0.039095663 0.63000005 4285229412
0.073524013 -0.037368231 0.63100004 4288453273
0.077096 -0.037061282 0.63339996 4289045412
-0.021555034 -0.032575689 0.63350004 4285624429
-0.018488085 -0.032447141 0.63100004 4285032546
0.072819084 -0.032487128 0.63177776 4287992466
0.076069683 -0.032601401 0.634 4287992724
-0.021984117 -0.027010471 0.63289994 4285360746
-0.018624781 -0.027657911 0.63060009 4284834660
0.068431057 -0.027068391 0.63080007 4287729552
0.071641698 -0.027899738 0.63311112 4287861137
-0.022282815 -0.022074601 0.63288885 4285031779
-0.018223008 -0.022485901 0.63044453 4284440157
0.063712694 -0.020991838 0.63033342 4287861395
0.06708999 -0.022794753 0.6322 4287926933
-0.02531728 -0.017618107 0.634 4284768863
-0.022282289 -0.017586704 0.63288885 4284571482
-0.017757691 -0.01754939 0.63155562 4284308567
-0.013746728 -0.017014896 0.63016671 4284045909
0.0630612 -0.017371174 0.63187504 4287335569
0.066028707 -0.018352196 0.63349998 4288519842
-0.02531728 -0.012623674 0.634 4284702813
-0.022312211 -0.012368384 0.6337499 4284440154
-0.017795566 -0.012351923 0.63291663 4284243032
-0.012534361 -0.012324977 0.63156247 4284111445
-0.0077896472 -0.011057816 0.63016671 4284176981
0.058147557 -0.011734949 0.63100004 4286479742
0.06152755 -0.012810087 0.63340002 4287598995
-0.022320619 -0.0080287978 0.634 4284505434
-0.017813921 -0.0071245381 0.63355559 4284242776
-0.01255114 -0.0071117976 0.63241667 4284308312
-0.0073013464 -0.0070930389 0.63077784 4284242518
-0.0038169874 -0.0060922331 0.63000005 4284308309
0.052774537 -0.006590005 0.63016671 4286019187
0.056759294 -0.0072976355 0.632375 4287005827
-0.017326187 -0.0031342544 0.634 4284242773
-0.012562223 -0.002630261 0.63299996 4284243032
-0.0073185614 -0.0026268342 0.63233334 4284045912
-0.0028291759 -0.002620569 0.63088894 4283783253
0.00064964168 -0.0016256036 0.63000005 4283061846
0.048690721 -0.0023204125 0.63000005 4285690736
0.052330121 -0.0026211573 0.63077784 4286216567
0.055901334 -0.0030062767 0.63325 4287137155
-0.012260407 0.0010039889 0.634 4281093975
-0.0071960674 0.0024043354 0.6335454 4280241246
-0.0028380698 0.0026061635 0.63291663 4279913053
0.002240258 0.002748243 0.63113338 4279847775
0.0071030557 0.0038348865 0.63016671 4279389541
0.010575484 0.0048261941 0.63000005 4279061607
0.044447422 0.003709537 0.63000005 4281361273
0.047939859 0.0027966043 0.63009095 4284445301
0.052390035 0.0026002347 0.63150007 4286282874
0.055592518 0.0018601773 0.634 4287334792
-0.0026550447 0.0076662032 0.634 4278727771
0.0023953675 0.0078361444 0.63258332 4278462806
0.0076132854 0.0078215124 0.63133335 4278923097
0.011882742 0.0079937438 0.6302501 4278593880
0.017275428 0.0092928233 0.63000005 4278526551
0.022486495 0.0092928233 0.63000005 4278264664
0.027697563 0.0092928233 0.63000005 4278854245
0.032908633 0.0092928233 0.63000005 4279711352
0.03737526 0.0092928233 0.63000005 4278458978
0.043040104 0.0079543097 0.63010007 4279649145
0.047882482 0.0078187613 0.63111115 4282346878
0.052505258 0.0078399945 0.63288891 4286283391
-0.0017185886 0.012348483 0.634 4279320166
0.0023985244 0.01233732 0.63341659 4278591574
0.0076253456 0.012316546 0.63233334 4279119199
0.012100269 0.012307628 0.63188893 4278591833
0.01732113 0.012303825 0.63166666 4278854750
0.02253779 0.012300023 0.63144445 4278591835
0.027537744 0.012155774 0.63100004 4279117414
0.03267283 0.012444726 0.63120002 4279183980
0.037434585 0.012291629 0.63099998 4279050858
0.042666372 0.012294087 0.6311667 4279318131
0.048000235 0.012323564 0.63266665 4281625473
0.051664621 0.012041499 0.63359994 4285495934
-0.0013440063 0.017592637 0.634 4279183966
0.0023990527 0.017580718 0.63356245 4278986334
0.007633911 0.017564889 0.63299996 4279513187
0.012125198 0.017570103 0.63316661 4279315039
0.017370502 0.017578136 0.63343745 4279183969
0.022614196 0.017582159 0.63358325 4279051872
0.027099101 0.017577535 0.63341659 4279183461
0.032307561 0.017560795 0.6328125 4279711853
0.037523575 0.017552197 0.63249999 4279647345
0.042007927 0.017552197 0.63249999 4279253102
0.046915106 0.017176798 0.63353848 4281099141
0.051097523 0.015345143 0.634 4284905858
-0.0013440063 0.021338459 0.634 4280173649
0.0028513162 0.022686956 0.63399994 4281156431
0.0076419506 0.022825571 0.63366663 4280893000
0.012139094 0.022833049 0.6338889 4280958279
0.016635949 0.022087626 0.634 4281026650
0.023628153 0.022337347 0.634 4281750369
0.027311545 0.022836791 0.634 4282472291
0.032368407 0.022836789 0.63399994 4282538853
0.037592787 0.022825571 0.63366669 4282603100
0.042085409 0.022825571 0.63366663 4280432685
0.045478791 0.022462208 0.634 4279775782
0.0041498686 0.026332892 0.634 4281805868
0.0073463046 0.026432779 0.634 4282332721
0.011391795 0.025833448 0.634 4282135597
0.027423918 0.027931109 0.634 4283980109
0.032689478 0.026689637 0.634 4281940271
0.037237979 0.026208032 0.634 4280624403
0.040609218 0.025833448 0.634 4282072095
0.024127595 0.031826764 0.634 4283385916
0.026375089 0.033325095 0.634 4281082139
0.048214674 -0.11603316 0.63550007 4286351433
0.052318033 -0.1014482 0.63666672 4287535960
0.052893188 -0.097573988 0.6375556 4287469649
0.002405606 -0.091930196 0.63500005 4283784245
0.053002983 -0.093106195 0.63662505 4287469910
0.056001719 -0.093216486 0.63866669 4286745439
-0.0018514659 -0.085902445 0.63666672 4285558640
0.0013227492 -0.088119991 0.63577783 4284703831
0.054264832 -0.089820385 0.63600004 4287600753
0.057291482 -0.087346941 0.6362223 4286546563
0.061712634 -0.086538754 0.63839996 4285296238
-0.0026391766 -0.082790673 0.63642865 4285493617
0.058727793 -0.08299192 0.63550007 4289572014
0.061738823 -0.082311325 0.63750005 4287203725
0.065091826 -0.081183188 0.63900006 4285230959
-0.011170555 -0.075142607 0.63900006 4285624689
-0.0073876921 -0.075808302 0.63825005 4285690480
-0.0036023003 -0.077014416 0.63575006 4285756015
0.063161962 -0.078184567 0.63644451 4288717476
0.067767911 -0.076303206 0.63860005 4286677384
-0.016456066 -0.070612162 0.63900006 4285756276
-0.012463109 -0.071914069 0.6383636 4285822065
-0.0072194478 -0.072164513 0.63670003 4285690223
-0.0043497942 -0.073210724 0.63533336 4285689965
0.064218082 -0.074211195 0.63533336 4289637806
0.067852594 -0.072348483 0.63655561 4289177769
0.072296001 -0.071172014 0.63860005 4286677893
-0.016456066 -0.067591876 0.63900006 4285756018
-0.012649794 -0.067416161 0.63733339 4285756016
-0.0083586508 -0.068240531 0.63566673 4285689965
0.069240913 -0.067973182 0.63550007 4289572012
0.072493084 -0.067451358 0.6376667 4288848292
-0.016758095 -0.062155344 0.63900006 4285690481
-0.013089165 -0.062984988 0.63670009 4285690222
0.072405182 -0.06285388 0.63688892 4289637551
0.075662844 -0.060041141 0.63900006 4289900721
-0.017054973 -0.057003476 0.63880002 4285689965
-0.014130662 -0.057528757 0.63625002 4285624426
0.073177315 -0.057840519 0.63614291 4289834927
0.076195851 -0.056666218 0.63839996 4289769134
-0.017741147 -0.052189581 0.63762504 4285755245
-0.014864056 -0.052954432 0.63550007 4285755501
0.076881036 -0.052291252 0.63657147 4289572270
0.080193281 -0.050980266 0.63900006 4289638063
-0.020986507 -0.047204901 0.63900006 4285624428
-0.018093199 -0.047979571 0.6367501 4285624427
0.078751653 -0.04739657 0.6365 4289637806
0.080193281 -0.048715048 0.63900006 4289572270
-0.022150505 -0.042287622 0.63770002 4285624429
-0.018784171 -0.043526728 0.63600004 4285492843
0.07954175 -0.04293862 0.63620007 4289637548
0.081703432 -0.041164316 0.63900006 4289769135
-0.026097041 -0.037052758 0.63840008 4285558379
-0.022821488 -0.037428476 0.63600004 4285492842
0.07941024 -0.037198786 0.63575006 4289900982
0.081660807 -0.037370235 0.63866669 4290559426
-0.026797796 -0.032618616 0.63800001 4285492585
-0.023881564 -0.032687891 0.63566673 4285427049
0.078726254 -0.032481838 0.63585716 4288190103
0.082230769 -0.033129685 0.63840002 4288124310
-0.030047381 -0.026062854 0.63900006 4285558122
-0.026961697 -0.027505763 0.63741672 4285360488
-0.023856519 -0.028901093 0.63500005 4285557868
0.073342226 -0.025703186 0.63633341 4287861138
0.076818079 -0.027949026 0.63730001 4287664017
0.08065483 -0.029319271 0.63866669 4287466381
-0.030790696 -0.022278771 0.63875008 4285361257
-0.02720646 -0.022036271 0.63610011 4285163622
0.069295391 -0.020679798 0.63600004 4288124315
0.071915351 -0.022719538 0.63700008 4287861398
-0.0321122 -0.017427705 0.63800001 4285163364
-0.028404832 -0.017673684 0.6360001 4284965985
0.068151012 -0.017700685 0.63700008 4288322721
0.071132407 -0.019267198 0.63900006 4288124315
-0.032690149 -0.012140826 0.63750005 4285031777
-0.02815593 -0.012347763 0.63561547 4284768605
0.063755937 -0.012097748 0.63642853 4288520354
0.067035861 -0.014218003 0.63833338 4288389027
-0.032816283 -0.007359853 0.63775003 4284834398
-0.027627451 -0.0071455347 0.63541681 4284637275
-0.022355827 -0.0060155261 0.63500005 4284505948
0.058773998 -0.0056492356 0.63600004 4288123796
0.061440989 -0.0076728407 0.6376667 4288584865
-0.031545181 -0.0030314974 0.63875008 4284768863
-0.027478816 -0.0027821423 0.63672733 4284571482
-0.022379559 -0.0026412129 0.63566673 4284571482
-0.01885421 -0.0016385053 0.63500005 4284505688
0.058192205 -0.0023438155 0.63620007 4287861392
0.060561381 -0.0041657365 0.63900006 4288650653
-0.030047381 0.00036470158 0.63900006 4284702813
-0.02669616 0.0023270191 0.63830006 4284440156
-0.022414895 0.0026216956 0.63666672 4283521625
-0.01788011 0.0026185105 0.63591677 4280831064
-0.012862857 0.0038680285 0.63555568 4279256413
-0.0088635273 0.0048721577 0.63600004 4279060323
0.057885177 0.0028735071 0.63722229 4288255383
-0.025516944 0.006405286 0.63900006 4284177243
-0.022466669 0.0079046832 0.63811111 4281027164
-0.017909979 0.0078906575 0.63700002 4278592342
-0.012636345 0.0078881513 0.63675004 4278460242
-0.0073586875 0.0078763049 0.63577783 4279320933
-0.004347512 0.0093665756 0.63500005 4278197072
0.057197399 0.0077052815 0.63725001 4288190104
-0.022485703 0.012439378 0.63866669 4279710808
-0.017932111 0.012422588 0.63777781 4278788447
-0.012649576 0.012414834 0.63741672 4278853980
-0.0073651159 0.012393932 0.63633341 4279318117
-0.0037472348 0.012367962 0.63500005 4278197074
0.053847 0.012753464 0.63550007 4286939776
0.056683321 0.01242354 0.63783336 4288255635
-0.02219134 0.017426932 0.63889998 4279648354
-0.017940635 0.017705845 0.63808334 4278987101
-0.012645395 0.017680865 0.63718754 4278920024
-0.0073651164 0.017657384 0.63633341 4279713641
-0.0035988772 0.017627915 0.63525009 4278591062
0.049203277 0.019381626 0.63533336 4282937476
0.052929875 0.017864261 0.63636374 4286481030
0.056315441 0.017273497 0.63880002 4288123794
-0.021741578 0.022261819 0.63900006 4281090620
-0.017954243 0.02300141 0.63855559 4281418556
-0.012644909 0.022951052 0.63716674 4281287747
-0.0073651168 0.022920839 0.63633341 4281222211
-0.0030389191 0.023091916 0.63587505 4281353027
0.0001545666 0.023623159 0.63500005 4280692526
0.01816288 0.023623159 0.63500005 4281613377
0.02216473 0.023122927 0.63500005 4282010449
0.025666345 0.022872813 0.63500005 4282603617
0.048450857 0.02310151 0.63612509 4282864195
0.052719958 0.022783691 0.63775003 4286677377
-0.017462831 0.027043948 0.639 4282073131
-0.012665741 0.027512193 0.63816667 4282139184
-0.0073715467 0.027456846 0.63688898 4282205235
-0.002851302 0.027417999 0.6360001 4281743147
0.0018223739 0.027727801 0.63544452 4282200109
0.0080332039 0.02850041 0.63500005 4281674274
0.012382702 0.027823148 0.63542855 4282529840
0.0174332 0.02740781 0.63575011 4282002470
0.022676071 0.02738926 0.63533342 4282991673
0.026791863 0.026624544 0.63500005 4283849553
0.031969257 0.028275307 0.63500005 4282203437
0.037996229 0.028293496 0.6354 4281742873
0.042403359 0.027590308 0.63562506 4281546000
0.04756568 0.027454907 0.63683337 4282466591
0.052072324 0.02722853 0.63860005 4286677623
-0.012114396 0.031511459 0.639 4281941030
-0.0073859533 0.032033935 0.63811111 4282005032
-0.0028563105 0.031977892 0.63700002 4281740835
0.0026260954 0.032383062 0.63650006 4282266155
0.0076761208 0.032705572 0.63650006 4282134567
0.012188834 0.032705572 0.63650006 4282002723
0.017443089 0.032685563 0.63612503 4282858292
0.022179544 0.032900263 0.63544452 4282990646
0.027317107 0.032477245 0.63500011 4283781188
0.03245211 0.032660168 0.63562512 4282137379
0.037746437 0.032692231 0.63625008 4281743123
0.042152256 0.032511532 0.63672733 4281545484
0.047671001 0.03204051 0.63825005 4282794785
0.05150051 0.032077771 0.63900006 4286545259
-0.006891808 0.036104824 0.639 4281214486
-0.0028640185 0.036596008 0.63877779 4281740579
0.0022039416 0.037670854 0.63871425 4282991416
0.0077022496 0.038099259 0.63866669 4283254586
0.012206658 0.038026348 0.6374445 4283056952
0.017457252 0.037979163 0.63666672 4282925623
0.022688229 0.037920035 0.63566679 4283583296
0.027195821 0.037920032 0.63566679 4282005288
0.032479618 0.037949532 0.63616675 4281743126
0.037790541 0.037999049 0.63700002 4281808402
0.042477973 0.037715148 0.63730007 4281677330
0.047550257 0.037393581 0.63866669 4283123748
0.051500507 0.035098061 0.63900006 4286742891
0.0088388808 0.042271256 0.63900006 4282992449
0.0122298 0.042627066 0.63866669 4284242257
0.017471354 0.042526621 0.63716668 4284571480
0.022724446 0.042493843 0.63666672 4283452741
0.027248111 0.042508148 0.63688892 4282925873
0.032521572 0.042515296 0.63700002 4281611793
0.037816901 0.042545751 0.6374445 4281149444
0.042314436 0.042522982 0.63711113 4281018117
0.047671195 0.042598736 0.63824999 4283716135
0.051500507 0.044158936 0.63900006 4286479210
0.0046859784 0.048689377 0.63900006 4282067241
0.0083103282 0.047783293 0.63900006 4283449404
0.01223671 0.04717923 0.639 4283121980
0.017503349 0.047130201 0.63833332 4283450177
0.022775741 0.047113866 0.63811111 4283056964
0.027295386 0.04710697 0.63800001 4282991167
0.032581132 0.047118884 0.63816667 4281216015
0.037889414 0.047155403 0.63866669 4280952581
0.04237321 0.047105398 0.63800001 4281281289
0.047671199 0.047123853 0.63825005 4284440108
0.051500507 0.047934305 0.63900006 4286019423
0.0031758323 0.052464738 0.639 4283584075
0.007706271 0.052464738 0.639 4283912784
0.01223671 0.052464738 0.639 4283911756
0.016955916 0.051143356 0.639 4283516229
0.02310976 0.050803579 0.63900006 4282989886
0.027036142 0.050803579 0.63900006 4282859581
0.032623682 0.050199524 0.63900006 4280162563
0.03824478 0.051877469 0.639 4280952841
0.042399902 0.052417532 0.63841671 4283519268
0.047674458 0.052408069 0.63831246 4284506927
0.051500507 0.052464742 0.63900006 4285098818
0.0034778616 0.056844167 0.63900006 4283056444
0.0074042417 0.056844167 0.63900006 4283846476
0.010726563 0.056240108 0.63900006 4284242262
0.039419338 0.056995183 0.63900006 4283782954
0.042416707 0.057720132 0.63866669 4283914793
0.047669616 0.057682663 0.63824999 4284572460
0.052104563 0.057448227 0.63900006 4285230657
0.039419338 0.063790835 0.63900006 4283914533
0.042431992 0.06227012 0.6388889 4284046118
0.047713086 0.062264845 0.63883334 4284506665
0.051500507 0.061525617 0.63900006 4284966960
0.037531655 0.066811137 0.639 4283190562
0.042439628 0.066056065 0.639 4284045603
0.046970069 0.065300986 0.63900006 4284440871
0.030358464 0.072096646 0.63900006 4284572769
0.036399048 0.071341567 0.63900006 4283386953
0.018277293 0.078137219 0.639 4284374365
0.022807732 0.078137219 0.639 4284506205
0.018277293 0.080402441 0.63900006 4284505948
0.022807732 0.080402441 0.63900006 4284571741
0.056118626 -0.097947836 0.64000005 4287338347
-0.0089192726 -0.076772705 0.64000005 4285887861
0.068218701 -0.07828521 0.64000005 4285098867
0.071243726 -0.073747687 0.64000005 4284901994
-0.021052191 -0.066288553 0.64100003 4285953401
-0.018599333 -0.067395151 0.64000005 4285887604
0.077099152 -0.066337898 0.64150006 4286019454
-0.025716607 -0.060510948 0.64400005 4285623661
-0.022296483 -0.062284611 0.6419 4285756275
-0.018858621 -0.062511906 0.64000005 4285689968
0.077513747 -0.062578663 0.64180005 4288783013
-0.026097097 -0.057086531 0.64400005 4285624946
-0.022607494 -0.057298727 0.64211112 4285689711
-0.01913633 -0.057132982 0.64025003 4285821296
0.078551278 -0.057578627 0.64100003 4289900722
0.081379361 -0.057127882 0.64360005 4289638065
-0.026477585 -0.052901134 0.64400005 4285624434
-0.022584286 -0.052691996 0.6414445 4285821811
-0.019506838 -0.054085065 0.64000005 4285361003
0.078806274 -0.054085065 0.64000005 4289638063
0.082310997 -0.052947626 0.64225006 4289506477
-0.030282494 -0.045291319 0.64400005 4285558636
-0.027067106 -0.047307037 0.64318186 4285690222
-0.023122232 -0.047893465 0.640625 4285558892
0.08275003 -0.047371998 0.64125001 4289834929
0.085386656 -0.046813283 0.64400005 4289637550
-0.032242 -0.041917469 0.64360011 4285624175
-0.027141979 -0.042095378 0.64166671 4285755758
-0.024044365 -0.043497499 0.64000005 4285624429
0.083095893 -0.042429309 0.64100003 4289900464
0.085734002 -0.041851096 0.64375007 4289966257
-0.036370344 -0.037681509 0.64400005 4285492845
-0.032496262 -0.037599206 0.64258331 4285690223
-0.028214931 -0.037840806 0.64025003 4285624172
0.083755076 -0.037083372 0.64025009 4290493374
0.086166777 -0.037926916 0.64300001 4291283660
-0.036370344 -0.031593662 0.64400005 4285623915
-0.032643005 -0.032778807 0.64200008 4285755758
-0.028581893 -0.034422442 0.64000005 4285427050
0.084544472 -0.032557517 0.64050007 4288058517
0.087551512 -0.032310236 0.64312506 4287729809
-0.036370344 -0.027027771 0.64400005 4285887085
-0.032614775 -0.027737299 0.64146149 4285492585
0.078111582 -0.025367189 0.64050007 4287138444
0.082367614 -0.027091138 0.64155555 4286743172
0.086180575 -0.027871456 0.64342862 4286282875
-0.036351521 -0.022451043 0.64366668 4285623916
-0.033605341 -0.022573655 0.64100009 4285558379
0.073841937 -0.021335706 0.64066672 4287729812
0.077090338 -0.022914127 0.64250004 4287335309
0.081581756 -0.023983845 0.64400005 4286217854
-0.037084263 -0.017873231 0.64316672 4285295464
-0.034280859 -0.018177453 0.64050007 4285361257
0.069731213 -0.016272331 0.64000005 4288257442
0.072794303 -0.018172126 0.64300001 4287664789
-0.037309159 -0.012290493 0.6426667 4285294950
-0.03463193 -0.014003567 0.64000005 4285360742
0.067722753 -0.011760321 0.64142859 4288454820
0.070167035 -0.013330108 0.64400005 4286941582
-0.037616458 -0.0074156336 0.64250004 4285229158
-0.03463193 -0.0056847655 0.64000005 4285031778
0.063276507 -0.0061986055 0.64100003 4289111977
0.065905236 -0.0076131318 0.64324999 4288783014
-0.036922652 -0.0029761337 0.64300001 4285097829
-0.033659276 -0.0021571654 0.64066672 4284834657
0.06251853 -0.0024765497 0.64162505 4289243303
-0.036370344 0.0018895176 0.64400005 4284834913
-0.032622468 0.0027954469 0.64206672 4284834399
-0.028581893 0.0041465457 0.64000005 4284308570
-0.031578649 0.0079686679 0.64325005 4284637022
-0.027291352 0.0081267636 0.64074999 4284440158
0.059143648 0.0094403289 0.64000005 4289045925
-0.030863065 0.012227176 0.64340001 4284439644
-0.027117955 0.012487251 0.64111114 4284045915
0.059143648 0.012465347 0.64000005 4289308580
0.062396109 0.012510794 0.64233333 4289243304
-0.030282492 0.017109143 0.64400005 4284505694
-0.027132578 0.017041512 0.64144444 4283127641
-0.024044365 0.018515384 0.64000005 4280044643
0.058612574 0.017327104 0.64080006 4289111202
0.062417168 0.017071819 0.64255559 4289375146
-0.030282494 0.020914048 0.64400005 4284439387
-0.027184144 0.022390349 0.64266676 4282205245
-0.02328811 0.023052914 0.64000005 4281286968
0.054606121 0.024565421 0.64000005 4287269000
0.057803888 0.022363441 0.64190006 4288585119
0.06255722 0.020153068 0.64400005 4289440940
-0.027197847 0.027719771 0.64300007 4282072105
-0.022548553 0.027609862 0.64044446 4282138666
-0.019002669 0.02859878 0.64000005 4282007079
0.054249324 0.027979936 0.64025009 4287334790
0.056990467 0.027415851 0.64300001 4288320920
-0.026780903 0.032082997 0.64342862 4282071588
-0.022579851 0.032195427 0.64133334 4282006564
-0.018000839 0.032139651 0.64022225 4282006821
-0.013834928 0.03326235 0.64000005 4282269481
0.053935185 0.032178167 0.64100003 4287005821
0.056784097 0.032671608 0.64324999 4287795344
-0.026097097 0.036514167 0.64400005 4281940514
-0.022640804 0.037604108 0.64308339 4281874976
-0.017615562 0.037752364 0.64192861 4281678110
-0.012390779 0.037248798 0.64071429 4281085204
-0.0079109333 0.038682178 0.64000005 4281149970
-0.0028692351 0.039690517 0.64000005 4283979335
0.053024452 0.037586778 0.64066666 4286808180
0.057186507 0.037626404 0.64350003 4287795086
-0.021658039 0.041967865 0.64400005 4281546011
-0.01732319 0.042921718 0.64308339 4281020176
-0.011981616 0.042849012 0.64200002 4281743130
-0.0074137175 0.042753141 0.64055562 4282662706
-0.0028692351 0.042715535 0.64000005 4284044113
0.0024245477 0.042715535 0.63999999 4284110675
0.0068108244 0.043018036 0.64000005 4283913553
0.053346664 0.042576529 0.64074999 4287137145
0.057157278 0.04292649 0.64316672 4287663495
-0.021150718 0.047548395 0.64400005 4281480215
-0.017322993 0.047480524 0.64308339 4281612314
-0.01197411 0.047367651 0.64155555 4282138144
-0.0074173128 0.047318429 0.64088893 4282860603
-0.0028717529 0.047285352 0.64044446 4282530098
0.0022182963 0.047115568 0.63999999 4282858812
0.0069620758 0.046496809 0.64000005 4282595382
0.053562321 0.047068633 0.64042866 4286741875
0.057912868 0.047482505 0.64311117 4287597446
-0.021150719 0.051353298 0.64400005 4281742877
-0.01709629 0.052443892 0.64271438 4282006302
-0.011971517 0.052663449 0.64141673 4281677081
-0.0074152662 0.05260158 0.6406666 4282662965
-0.0028692351 0.052546844 0.63999999 4283123267
0.00015578367 0.052546848 0.64000005 4284175954
0.018116832 0.053870291 0.64000005 4284505178
0.02262735 0.053735249 0.64000005 4283715148
0.027597025 0.053735245 0.64000005 4282267691
0.032674734 0.053303096 0.63999999 4280425479
0.036960173 0.054311443 0.64000005 4282006043
0.053860527 0.052556667 0.64012504 4286480750
0.057707775 0.052532937 0.64236361 4287006336
0.061035257 0.053636242 0.64400005 4287794830
-0.017124655 0.057323743 0.64345461 4282269477
-0.011990173 0.058062594 0.64244449 4282335013
-0.0074240044 0.057972219 0.64144444 4281281558
-0.002872749 0.057901926 0.64066666 4282595884
0.001668293 0.058488846 0.64000005 4281806880
0.0080964575 0.058975007 0.64000005 4282398509
0.012444923 0.058029689 0.64000005 4282859833
0.017562149 0.057878483 0.64041662 4282136623
0.022895241 0.057971433 0.64144444 4281874211
0.027432717 0.057951346 0.64122224 4281940251
0.032699078 0.057885814 0.64050001 4283321895
0.037536371 0.058056701 0.64000005 4283716906
0.054227993 0.058218755 0.64000005 4286151008
0.058010578 0.057762176 0.64250004 4287005309
0.061035257 0.055919193 0.64400005 4288058259
-0.015062868 0.061246056 0.64400005 4282334499
-0.011638453 0.061626546 0.64400005 4282268959
-0.0072616586 0.062565885 0.64387506 4280821771
-0.0028814797 0.062628016 0.64255559 4280886794
0.0024273715 0.062484726 0.64108342 4281939489
0.0077282358 0.06245527 0.64077783 4281741601
0.012275008 0.06247719 0.64100003 4281280795
0.017582225 0.06249265 0.64116657 4281676321
0.022879116 0.062475614 0.64100003 4282467111
0.027418718 0.062464528 0.64088887 4282796326
0.032682851 0.062394012 0.64016664 4283388709
0.037779454 0.062189087 0.64000005 4283651621
0.053537942 0.062608488 0.64014292 4285229632
0.057873111 0.062638588 0.6426667 4287071097
-0.0063115838 0.066953421 0.64400005 4281544728
-0.0028859633 0.067287706 0.64355558 4282202921
0.0024321447 0.067133702 0.64208347 4283387976
0.0077424496 0.067124791 0.64200002 4284111957
0.012294158 0.067124791 0.64200002 4284374620
0.017798251 0.067474447 0.64121431 4284440414
0.022864049 0.06773252 0.64058334 4283782480
0.027384324 0.067680456 0.64008331 4283585360
0.032674734 0.067671932 0.64000005 4282533170
0.038724773 0.069184445 0.64000005 4282401566
0.042506043 0.069184445 0.64000005 4283980580
0.047054414 0.067363106 0.64014292 4284375078
0.052427623 0.067029543 0.64108336 4284901425
0.057942357 0.067276344 0.64344448 4286413929
-0.011257962 0.074943721 0.64400005 4283846992
-0.0071447431 0.072918862 0.64360011 4284044882
-0.0028825284 0.072527371 0.64283341 4284308568
0.0024321545 0.072448924 0.64212507 4284374362
0.0077424496 0.072435118 0.64200008 4284374364
0.012288976 0.072406419 0.6417501 4284374365
0.01734056 0.072565302 0.64028579 4284440415
0.022843422 0.072965726 0.64000005 4284374877
0.027380953 0.072965719 0.64000005 4284571742
0.033128489 0.073116973 0.63999999 4284506719
0.038157582 0.073154792 0.64000005 4283453256
0.042543992 0.073029585 0.64055556 4282532900
0.047190979 0.072436891 0.64200008 4283717663
0.052598983 0.07257095 0.64318758 4284638504
0.057543959 0.071666762 0.64385718 4285493570
-0.012015321 0.077960461 0.64377785 4284308313
-0.0074304342 0.077744916 0.64200002 4284177243
-0.002872224 0.077583186 0.64066666 4284308572
0.0024283358 0.077624343 0.64099997 4284373851
0.0077271853 0.077596642 0.64077783 4284505437
0.012257723 0.077516444 0.64011115 4284505694
0.016793387 0.076746993 0.64000005 4284374365
0.022843422 0.075990736 0.64000005 4284440669
0.027380953 0.077503249 0.64000005 4284637534
0.032674734 0.077503249 0.63999999 4284834913
0.037988815 0.077544138 0.64033341 4284966498
0.042617522 0.077705078 0.64166671 4284571736
0.047297813 0.077920094 0.64344448 4282532898
0.051903483 0.077335365 0.64400005 4283980574
-0.011102506 0.082223974 0.64380008 4284373852
-0.0074348175 0.082340926 0.64233339 4284308315
-0.002872251 0.082113042 0.64055556 4284242522
0.0024282951 0.082147799 0.64083332 4284439644
0.0077223503 0.082084298 0.64033335 4284373851
0.012259851 0.082069784 0.64022225 4284439644
0.017297557 0.082544953 0.64000005 4284505692
0.022843422 0.082797028 0.64000005 4284505948
0.027395213 0.082084291 0.64033341 4284571486
0.032514248 0.082021087 0.64090902 4284769121
0.037765916 0.082411125 0.64170009 4285032035
0.042639397 0.082297675 0.64199996 4285294950
0.04731388 0.082510799 0.64366674 4284308556
0.050381523 0.081031568 0.64400005 4282730521
-0.007070262 0.08594472 0.64375007 4284111451
-0.0026935905 0.086812288 0.64312506 4283124054
0.0024336244 0.086917676 0.6425001 4283321432
0.0077395076 0.086819321 0.64177781 4283321173
0.012285384 0.086789526 0.64155555 4283453013
0.017648347 0.08701016 0.64146149 4284505949
0.022903107 0.087562978 0.64166671 4282400334
0.027480779 0.086894736 0.64233339 4283453019
0.032034848 0.086894736 0.64233339 4284571744
0.037347928 0.086894743 0.64233345 4284176992
0.042698961 0.08696989 0.64288896 4283255907
0.046178341 0.0867057 0.64375007 4283913830
0.0039616637 0.09016335 0.64400005 4281149267
0.0080709625 0.090772137 0.64400005 4280952400
0.012325681 0.090877652 0.64366674 4281149516
0.017762247 0.092416286 0.64378577 4282269005
0.022974297 0.093159825 0.64366674 4280031830
0.027538018 0.092399418 0.64366674 4280163415
0.032105703 0.092411093 0.64375001 4281742684
0.037437279 0.092428766 0.64387506 4279900496
0.042426374 0.091838866 0.64388895 4280360543
0.019181289 0.096251197 0.64400005 4279703364
0.023290588 0.096859977 0.64400005 4280690274
0.027552083 0.097773165 0.64400005 4281018720
0.032117974 0.09777315 0.64400005 4280362079
0.036874104 0.09720242 0.64400005 4279571797
0.03211797 0.10081708 0.64400005 4278650950
0.081539623 -0.061175656 0.64566666 4286084734
-0.028805189 -0.056031927 0.64500004 4285296498
0.083711505 -0.058005441 0.64575005 4285756793
0.085718125 -0.056926761 0.64649999 4284573287
-0.031891469 -0.050755445 0.64575005 4285755762
-0.028805189 -0.052983273 0.64500004 4285624947
0.087040715 -0.052234203 0.64622223 4286743689
-0.035010718 -0.048560411 0.64700001 4285624175
-0.032417763 -0.047176555 0.64518183 4285755760
-0.028805189 -0.049934626 0.64500004 4285558382
0.087654963 -0.047415633 0.64628571 4289440685
0.090650931 -0.046409849 0.64900005 4288322203
-0.037951145 -0.041550834 0.64500004 4285229678
-0.03414033 -0.043837324 0.64500004 4285624430
0.088095471 -0.042683937 0.64600003 4289966514
0.090929613 -0.042142756 0.64824998 4289703855
-0.041095145 -0.03706326 0.64649999 4284901481
-0.038723506 -0.037749376 0.6451667 4285559410
0.08856789 -0.037740018 0.64500004 4290757062
0.091545925 -0.037671704 0.64757144 4290230462
-0.041636612 -0.031995673 0.64700001 4285558641
-0.038545717 -0.032613818 0.64537501 4285426796
0.091902994 -0.032505754 0.64700001 4288915112
-0.045855395 -0.025703834 0.64900005 4285821555
-0.042678744 -0.027167663 0.64733338 4285558894
-0.038743909 -0.027090723 0.6455 4285558377
0.088059783 -0.02605352 0.64500004 4285690736
0.091902204 -0.027153675 0.64699996 4286019445
0.095252275 -0.026470724 0.64900005 4286478968
-0.042708308 -0.022593647 0.6477778 4285426796
-0.038754109 -0.022520408 0.64566666 4285755245
0.078995921 -0.021502221 0.64566666 4286545795
0.082890287 -0.022113349 0.64657146 4285822327
0.087283745 -0.022556664 0.64677775 4285295722
0.091996379 -0.022588719 0.64766669 4285360744
0.095252275 -0.023403164 0.64900005 4285689195
-0.042708308 -0.018000711 0.6477778 4285492589
-0.03949587 -0.017933834 0.64533335 4285558382
0.074201666 -0.017188229 0.64600003 4286546563
0.077269562 -0.018601626 0.64740002 4286348670
0.082215153 -0.019568719 0.64900005 4285492592
0.087583378 -0.019568719 0.64900005 4285163625
0.092138149 -0.019558668 0.64866668 4285097574
-0.042712301 -0.012644533 0.64783335 4285689454
-0.039475471 -0.013350807 0.64500004 4285492075
0.071992494 -0.012949079 0.64671433 4285099634
-0.04269471 -0.0072819795 0.64755559 4285492332
-0.039475471 -0.0057291775 0.64500004 4285294696
0.068269365 -0.0069602421 0.64620006 4286940554
0.070657328 -0.0080585703 0.64850003 4284900458
-0.042723488 -0.002692993 0.648 4285295208
-0.039109688 -0.0022998925 0.64525008 4285098086
-0.045855395 0.0042048562 0.64900005 4285294695
-0.042706411 0.0026656371 0.64774996 4285163621
-0.038506594 0.0029127889 0.64577776 4284900706
-0.045855395 0.0072724149 0.64900005 4285228904
-0.042722434 0.0080274409 0.648 4285228904
-0.038037188 0.0080081727 0.64644438 4284834401
-0.034521412 0.0079897549 0.64500004 4284703072
-0.041841675 0.01232704 0.64860004 4285163110
-0.038102299 0.01261277 0.64755553 4284965988
-0.033829149 0.012786396 0.64528573 4284703073
-0.036904182 0.017062271 0.648 4284768866
-0.032624628 0.01714053 0.6451667 4284571487
-0.036080286 0.022827649 0.6478889 4284834402
-0.032194693 0.022800693 0.64569998 4284636766
0.059605706 0.024757339 0.64500004 4289572016
-0.035839949 0.027942898 0.64816666 4284637280
-0.031904802 0.027849101 0.64599997 4284176726
0.059270829 0.028209217 0.64550006 4289111465
0.062027402 0.02762951 0.648 4289572016
-0.035475329 0.032171812 0.64850003 4284571742
-0.031943213 0.032468732 0.64677775 4283519049
-0.028805189 0.033141129 0.64500004 4282268456
0.059051417 0.03210422 0.64560002 4289045412
0.062027402 0.032835376 0.648 4289506477
-0.031799406 0.036918063 0.64775002 4283189570
-0.028222254 0.03729213 0.64560008 4282006053
0.059605706 0.036951948 0.64500004 4289177511
0.062695116 0.037278846 0.64737499 4289835184
0.067610294 0.038695 0.64866668 4289703342
0.073665679 0.038655229 0.648 4286413692
-0.031260982 0.042516548 0.64850003 4282203441
-0.027349407 0.042391974 0.64658326 4281742880
-0.023215996 0.043557357 0.64500004 4281677596
0.059605706 0.042287085 0.64500004 4288321686
0.062753074 0.042352647 0.64599997 4289572013
0.067470729 0.042439073 0.64733332 4289769649
0.072274953 0.042368755 0.64715385 4288255897
0.075551264 0.043670166 0.64666671 4286481286
-0.031112308 0.04758174 0.64859998 4282136362
-0.027370943 0.047778621 0.64711112 4281545758
-0.02348257 0.047647234 0.64533335 4280822287
0.062709644 0.04766351 0.64555556 4289572268
0.067471325 0.047794506 0.64733332 4289835698
0.072097152 0.047819901 0.64766663 4289177254
0.075119734 0.047794502 0.64733338 4287335565
-0.030517606 0.052518893 0.64900005 4281215512
-0.02739444 0.052410994 0.64766663 4280820748
-0.023164878 0.052459538 0.64557153 4281150482
0.062919527 0.052065354 0.64574999 4289308325
0.067494482 0.052402265 0.64755559 4290098356
0.071947291 0.05202388 0.64828575 4289769134
0.075962797 0.050906554 0.648 4288190870
-0.027408803 0.057032745 0.648 4280952844
-0.022588322 0.057152968 0.64590001 4282006049
-0.019151127 0.059308726 0.64500004 4282401322
0.062900856 0.057684012 0.64577776 4288518809
0.067118034 0.056826357 0.64814287 4290426807
-0.026781306 0.061694734 0.64871436 4281808409
-0.022934167 0.062548488 0.6474545 4282006560
-0.017603828 0.063084878 0.64581817 4281414165
-0.012342471 0.063780084 0.64500004 4282005787
-0.0089889541 0.06438981 0.64500004 4280031488
0.06292548 0.062676862 0.6462 4288057486
0.066059537 0.062441498 0.64850003 4289175967
-0.022826025 0.067786969 0.64833331 4281020172
-0.017429747 0.067656673 0.64708328 4281348626
-0.012048761 0.067496814 0.64555556 4280690185
-0.0083792238 0.067743324 0.64500004 4281676315
0.062818617 0.067612723 0.64666671 4287400068
0.066110469 0.067856684 0.64900005 4288057228
-0.022640271 0.072402492 0.64850008 4281282571
-0.017432285 0.072253138 0.64716661 4281019399
-0.012042279 0.072035991 0.64522225 4281742623
-0.0089889541 0.071249276 0.64500004 4283386688
0.059605706 0.072773606 0.64500004 4287202667
0.062829152 0.072210178 0.64677775 4287202427
0.066110469 0.072458029 0.64900005 4287399552
-0.022826027 0.076980203 0.64833331 4280689667
-0.017263899 0.077377632 0.64653331 4281611289
-0.013561932 0.075060092 0.64500004 4280426254
0.05300029 0.079124957 0.64500004 4284243488
0.057665493 0.077590622 0.64521426 4285164339
0.062706627 0.07713981 0.64709991 4287070827
0.066110469 0.077059358 0.64900005 4287399806
-0.022326505 0.081107877 0.64866668 4281150475
-0.017621439 0.082781918 0.64761537 4283649860
-0.013186106 0.083095439 0.64525008 4284439387
0.052174613 0.082872264 0.64500004 4283059226
0.057431977 0.082842737 0.64624995 4284835372
0.063067764 0.082486309 0.64781815 4285888584
0.066110469 0.082427591 0.64900005 4287137395
-0.016190244 0.087217696 0.64850003 4283385685
-0.012072098 0.087496758 0.64677775 4282728024
-0.0077773831 0.088251881 0.64560002 4283453530
-0.0044159768 0.088779025 0.64500004 4279965492
0.048325695 0.087559566 0.64500004 4284966759
0.052048072 0.087360449 0.64577782 4283323190
0.057542369 0.087593287 0.64749998 4284112165
0.062967889 0.08769086 0.64822221 4285033775
0.066110469 0.08626204 0.64900005 4286546776
-0.011592454 0.091815494 0.64850003 4280492114
-0.0074983239 0.092240267 0.6478889 4281083729
-0.0028994125 0.092050977 0.6465556 4280294231
0.002140946 0.092248097 0.64579999 4279702608
0.0073975483 0.092970923 0.64500004 4281216606
0.012351607 0.094114162 0.64500004 4280952661
0.015400259 0.094876327 0.64500004 4283980897
0.043854341 0.094368219 0.64500004 4280623966
0.047266256 0.092147022 0.6451 4281413732
0.052127879 0.092081033 0.64677775 4283914828
0.05757159 0.092231244 0.64783329 4283519784
0.062577613 0.092356816 0.64871436 4284966954
-0.0059771417 0.095464706 0.64900005 4279637584
