# .PCD v0.7 - Point Cloud Data file format
VERSION 0.7
FIELDS x y z
SIZE 4 4 4
TYPE F F F
COUNT 1 1 1
WIDTH 1356
HEIGHT 1
VIEWPOINT 0 0 0 1 0 0 0
POINTS 1356
DATA ascii
0.062104285 -0.086699225 0.60736525
0.067991003 -0.086932234 0.60837346
0.07067135 -0.086007252 0.60900003
0.017361999 -0.082857333 0.60700005
0.022366373 -0.082800455 0.60658336
0.027335135 -0.083367079 0.60549998
0.033668719 -0.082226798 0.6059165
0.038127795 -0.083268464 0.60711026
0.041816201 -0.083147511 0.60698247
0.046869516 -0.08286798 0.60720855
0.053025089 -0.082916051 0.60657811
0.058494631 -0.082583554 0.60628748
0.062744886 -0.082185067 0.60664135
0.068201944 -0.082169898 0.60795861
0.07067135 -0.082409136 0.60900003
0.0074869972 -0.077360705 0.60766667
0.01159978 -0.078138433 0.60581815
0.017304791 -0.079723157 0.60500002
0.020879276 -0.079723157 0.60500002
0.034218889 -0.076905735 0.60524482
0.039233297 -0.077423736 0.60626566
0.042552479 -0.077564463 0.60621393
0.048067104 -0.078204148 0.60637325
0.052899361 -0.077762701 0.6058253
0.057846162 -0.076301388 0.60594755
0.063132785 -0.078005157 0.60633522
0.06779813 -0.077612884 0.60824549
0.07067135 -0.078091383 0.60900003
0.0080568856 -0.072754376 0.6085
0.011421875 -0.072500139 0.60587507
0.05845581 -0.072478533 0.60541677
0.06309332 -0.0733933 0.60683507
0.06794703 -0.072143629 0.60909575
0.0037463559 -0.06585779 0.60900003
0.0073308386 -0.067904979 0.60800004
0.010778183 -0.067941472 0.60557145
0.02692242 -0.066411413 0.60506421
0.054479435 -0.065425225 0.60500002
0.057667546 -0.067025892 0.60511112
0.063531719 -0.067384608 0.60685915
0.067358635 -0.066785082 0.60797036
0.0037328303 -0.062757991 0.6068334
0.006826757 -0.06287498 0.6056667
0.054479435 -0.06256564 0.60500002
0.05737114 -0.062600628 0.60533333
0.064114191 -0.06276802 0.6062355
0.068906002 -0.062377285 0.60848022
0.071390942 -0.06411507 0.60996926
0.0030068522 -0.059706047 0.60500002
0.054479435 -0.059706047 0.60500002
0.056981575 -0.059348598 0.60500002
0.062946446 -0.058637585 0.60544449
0.068390392 -0.0569642 0.60748225
0.071427561 -0.058355138 0.60871828
0.062481854 -0.051032953 0.60632741
0.069240868 -0.051924061 0.60779053
0.071360484 -0.052394409 0.60785723
0.058579404 -0.047452994 0.60589969
0.064623319 -0.046459928 0.60830349
0.068709098 -0.046913601 0.60720491
0.071073733 -0.04781362 0.60833335
0.057988692 -0.043617085 0.60603833
0.062786326 -0.04193113 0.60707933
0.066996947 -0.042914845 0.60667217
0.058768816 -0.035399552 0.60500002
0.061772633 -0.037110355 0.60594612
0.066207759 -0.038354028 0.60787749
0.054479435 -0.031110171 0.60500002
0.057946697 -0.031998433 0.60642654
0.061674647 -0.032641064 0.60739207
0.065933317 -0.033091135 0.60861683
0.047632542 -0.025971305 0.60519999
0.051888838 -0.027391801 0.60600352
0.056296136 -0.027231738 0.60807413
0.060731612 -0.027924702 0.60798424
0.065734059 -0.026946589 0.60878038
0.048656151 -0.021124279 0.60618615
0.052251656 -0.022566432 0.60724437
0.059354469 -0.020613387 0.60931909
0.060493734 -0.022562273 0.60852176
0.065358073 -0.024079174 0.60973072
-0.017764295 -0.017564083 0.60624993
0.038854986 -0.015018187 0.60533458
0.044125233 -0.017564788 0.606116
0.048120186 -0.017286938 0.60641438
0.052029882 -0.017190296 0.60805112
-0.022838762 -0.012583173 0.60788894
-0.018643118 -0.012717688 0.60575002
0.03884891 -0.012788715 0.60559678
0.043796092 -0.01231937 0.60766822
0.048156213 -0.012048695 0.60756189
0.051551372 -0.013080339 0.60858744
-0.026237959 -0.0092474008 0.60900003
-0.022855721 -0.007080114 0.60833335
-0.019171376 -0.0075247837 0.60549998
0.028743144 -0.0053738793 0.60500002
0.032621078 -0.0056246431 0.60538244
0.03775879 -0.0070623234 0.60634488
0.043238718 -0.0069415057 0.60771412
0.047258317 -0.0076641189 0.60837233
0.051080994 -0.0085725579 0.60879999
-0.022384321 -0.0025289364 0.60855556
-0.019182326 -0.0025181486 0.60583335
0.023429036 -0.00092658697 0.60508329
0.0273342 -0.0025153507 0.60544443
0.03296246 -0.0018127556 0.60650241
0.037445575 -0.0027733538 0.60768211
0.041112661 -0.0022894586 0.60791051
0.046923772 -0.0032505384 0.60900003
-0.022843724 0.0025023345 0.60800004
-0.01882077 0.0024924595 0.60570836
0.0098049324 0.0048092585 0.60551977
0.014304829 0.0021028861 0.60530019
0.017795417 0.0028232364 0.60559279
0.023481425 0.0026376098 0.60542977
0.027674984 0.0027393983 0.60631561
0.032382283 0.0030429699 0.60728616
0.036791332 0.0025606086 0.60833675
0.041150726 0.0012842171 0.60899162
-0.022843724 0.0078906491 0.60800004
-0.018636573 0.0078589171 0.60554171
-0.00089102983 0.0098827146 0.60504675
0.0043668076 0.0088632973 0.60560274
0.0078251585 0.0077595562 0.60535425
0.012528593 0.0071583739 0.60585117
0.017300129 0.0091774371 0.60652381
0.022629049 0.0071341572 0.606031
0.027622143 0.0079774642 0.60702491
0.032525081 0.0075130793 0.60759604
0.036458876 0.0069319201 0.60879552
-0.022306055 0.012014423 0.60861111
-0.017994143 0.01204213 0.60597223
-0.012458122 0.013329896 0.60624605
-0.0074073151 0.012154628 0.60665655
-0.0021571741 0.012966327 0.60642731
0.0038010511 0.013200789 0.60632145
0.0074990927 0.012980496 0.60628587
0.011881819 0.012607609 0.60666275
0.017596412 0.012466908 0.60654706
0.022207087 0.012825181 0.60721302
0.027207876 0.012401152 0.60768509
0.032425515 0.012770846 0.60849857
0.035933692 0.011696143 0.6096884
-0.021080658 0.017258734 0.60900003
-0.017358104 0.01741989 0.60710007
-0.012720108 0.017453371 0.60791618
-0.0078926561 0.0171532 0.6074031
-0.0032533323 0.017612517 0.60775149
0.0017731963 0.017809022 0.60677534
0.0069860835 0.017634466 0.60669947
0.011652064 0.017615058 0.60726166
0.016586894 0.017779058 0.60800123
0.022432381 0.017599849 0.60833341
0.028225625 0.018112224 0.60855514
0.030870458 0.016142774 0.6089744
-0.021080658 0.021936286 0.60900003
-0.017415171 0.023222707 0.60864884
-0.011923352 0.022018071 0.6087029
-0.0076794191 0.023121655 0.60811192
-0.0019789403 0.022559844 0.60751945
0.0023594436 0.022717649 0.60762173
0.0075882436 0.021997536 0.60692358
0.012060742 0.022710821 0.60815185
0.016770054 0.022860089 0.60842699
0.021993792 0.022129282 0.60907102
0.028330276 0.022204284 0.60916328
-0.022453414 0.027879391 0.60857147
-0.017979462 0.027674302 0.60824943
-0.013189296 0.027332665 0.60666746
-0.007837614 0.027594425 0.60872358
-0.0025528485 0.027932242 0.60784858
0.0022454839 0.026691621 0.60797215
0.007856735 0.026621662 0.60821348
0.012341176 0.02760233 0.60699999
0.017517257 0.027004192 0.60858083
0.021950157 0.026948124 0.60932714
0.028602023 0.027469018 0.60919499
-0.022858588 0.032698993 0.60841662
-0.017715517 0.032109212 0.60768974
-0.013060712 0.031670906 0.60644358
-0.0081585562 0.031850725 0.60808122
-0.002687919 0.03241387 0.60788178
0.0022995321 0.033101324 0.60700005
0.0073278556 0.033375159 0.60761118
0.01235313 0.032654196 0.60756254
0.01740397 0.033420272 0.60844445
0.02065751 0.031651206 0.60900003
0.026682606 0.032020025 0.60900676
-0.022360139 0.038027592 0.60855001
-0.017494703 0.037434753 0.60751426
-0.013047201 0.03731019 0.60699129
-0.0077286181 0.037940584 0.60600001
-0.0027210729 0.038008362 0.60708338
0.0023049365 0.037716921 0.60816669
0.0073388512 0.037741233 0.60855556
0.012376855 0.037753094 0.6087501
0.016519673 0.038127817 0.60900003
-0.021200595 0.042565495 0.60900003
-0.017184826 0.041608643 0.60797328
-0.012823978 0.042552952 0.60769075
-0.0077400752 0.042656887 0.606875
-0.0027248086 0.04272991 0.60791665
0.0018273396 0.042320058 0.60891676
0.0066248495 0.041366123 0.60900003
0.011480027 0.041213848 0.60918653
-0.020001223 0.04640349 0.60900003
-0.016403105 0.047123112 0.60900003
-0.011538911 0.047835015 0.60857028
-0.0077558858 0.047410015 0.60806251
-0.0027291155 0.047470227 0.60883331
0.00014823789 0.04640349 0.60900003
-0.011602609 0.051453128 0.60909355
-0.0077676214 0.05144085 0.60900003
-0.0036897545 0.051200975 0.60900003
-0.016377714 0.055038165 0.60974705
0.0023306012 0.055553451 0.60997349
-0.025269683 0.087173969 0.60927963
0.071910806 -0.14101012 0.61226904
0.068672277 -0.13610259 0.61076725
0.072338931 -0.13653651 0.61282849
0.03484207 -0.13119352 0.61166674
0.037366234 -0.13150084 0.61040002
0.068224192 -0.13189867 0.61117601
0.071960554 -0.13246639 0.61271256
0.034974981 -0.12879422 0.61400002
0.038130239 -0.12839834 0.61288887
0.042145289 -0.12648824 0.61104172
0.063357666 -0.12612227 0.61010993
0.067447595 -0.12679783 0.61162883
0.071936995 -0.12775892 0.6135124
0.038615692 -0.12206659 0.61422229
0.042769086 -0.12210317 0.61137503
0.063458845 -0.1226176 0.6101433
0.067767598 -0.1225285 0.61209852
0.072481446 -0.12288567 0.61350089
0.034974981 -0.11646019 0.61400002
0.038294367 -0.11819256 0.61294448
0.041814119 -0.1183382 0.61058331
0.064257286 -0.11694811 0.61014587
0.068283707 -0.11763867 0.6124239
0.072367452 -0.11840252 0.61334509
0.034220971 -0.11274064 0.6135
0.037695605 -0.11193575 0.61108339
0.040513571 -0.11498068 0.61000001
0.063579336 -0.11209746 0.61000001
0.067910679 -0.11198499 0.61123252
0.07234145 -0.11225668 0.61230749
0.076454923 -0.1119526 0.61360073
0.03483982 -0.10722575 0.61375004
0.037721116 -0.10731408 0.61150002
0.067843691 -0.10776841 0.61052179
0.071912304 -0.10717616 0.61114949
0.075381346 -0.10719155 0.61152077
0.08049313 -0.10746877 0.61321259
0.034974981 -0.10340062 0.61400002
0.037783593 -0.10206188 0.61250001
0.041070778 -0.10186721 0.61025
0.06836874 -0.1024833 0.61047804
0.071769089 -0.10249928 0.61147416
0.075625092 -0.1019218 0.61224198
0.080753729 -0.1026637 0.61333543
0.034092952 -0.096259318 0.61380005
0.037529286 -0.096840829 0.61227781
0.041250978 -0.097361282 0.61025
0.068198994 -0.098273113 0.61069357
0.072147764 -0.097157635 0.6125049
0.075723432 -0.09803167 0.61319774
0.080230974 -0.099248074 0.6146667
0.022622503 -0.091717944 0.6135
0.027860954 -0.09220589 0.61312497
0.032686513 -0.091847196 0.61193752
0.037893955 -0.093175627 0.61038888
0.040513571 -0.094077334 0.61000001
0.06799046 -0.093520105 0.61012501
0.071343899 -0.09175171 0.61136788
0.075540438 -0.092657804 0.61365521
0.022220895 -0.088559821 0.61100006
0.02753908 -0.089031696 0.61000001
0.0304223 -0.089031696 0.61000001
0.071522892 -0.087392278 0.61112684
0.075694993 -0.087386854 0.613626
0.072187975 -0.082419977 0.61221278
0.07574439 -0.082245141 0.61356992
0.072068669 -0.077280715 0.6117602
0.075881287 -0.077819631 0.61339873
0.0059149228 -0.071732372 0.61000001
0.06886524 -0.070771299 0.61000001
0.072112247 -0.072391272 0.61164463
0.076363787 -0.07273183 0.61386079
0.0030350965 -0.067518048 0.611
0.068466559 -0.066697672 0.61004025
0.07217063 -0.067814872 0.61192358
0.076783761 -0.067116395 0.61373365
0.06886524 -0.064043783 0.61000001
0.073033728 -0.062936075 0.61167008
0.077637285 -0.062212627 0.61368984
0.073761828 -0.057239115 0.61106545
0.077445738 -0.057511218 0.6132459
0.080259576 -0.058081292 0.61367476
0.073427454 -0.052823503 0.61109269
0.077392355 -0.052590568 0.61326683
0.080352888 -0.054799374 0.61390752
0.069513768 -0.047027893 0.61011022
0.07365343 -0.047168829 0.61175787
0.077623129 -0.047289111 0.61441833
0.069480665 -0.040964805 0.61027205
0.073221989 -0.041991469 0.61213273
0.07587035 -0.042876724 0.61380005
0.069046505 -0.036363598 0.6107043
0.0730474 -0.037130158 0.61313456
0.075604767 -0.038828287 0.61400002
0.064178474 -0.030768678 0.61106682
0.067581654 -0.032196168 0.61195928
0.071627684 -0.032658637 0.61293602
0.058838729 -0.026109353 0.61066669
0.062284023 -0.027426422 0.61240029
0.068554588 -0.026780589 0.61262298
0.071138375 -0.028107485 0.61250496
0.054632511 -0.0210285 0.6109587
0.058156174 -0.022331545 0.61278611
0.062415432 -0.022914648 0.61268586
0.069326356 -0.021887455 0.61339557
0.054064672 -0.016170267 0.61071527
0.058376934 -0.017082781 0.61137265
0.062984213 -0.01810802 0.6126287
0.067685105 -0.019283695 0.6135664
0.052661363 -0.01173564 0.61085832
0.058184057 -0.012035271 0.61206746
0.062246013 -0.012972352 0.61395824
-0.027001848 -0.0068599023 0.61000007
0.047069896 -0.0059487182 0.61160135
0.05201124 -0.007398434 0.61183184
0.057113964 -0.0076139644 0.61329275
0.061094128 -0.009807012 0.61400002
-0.027265431 -0.0021765491 0.61049998
-0.024358897 -0.0032558758 0.61000001
0.036771093 -0.0002514784 0.61012697
0.042887427 -0.0021724035 0.61095601
0.047374468 -0.0018110089 0.61159348
0.051443815 -0.0016861665 0.61333483
0.056851871 -0.0028713185 0.61344451
-0.027265234 0.0010700285 0.61050004
0.037293635 0.0034134767 0.61044979
0.042618193 0.0027666017 0.61175317
0.04729696 0.0025453407 0.61343247
0.052279904 0.0032465793 0.61272228
0.055630125 0.0014385881 0.61375004
-0.030705053 0.0081551354 0.614375
-0.027333012 0.0083041452 0.61200005
0.034266595 0.0085172756 0.61000001
0.037352823 0.0082444903 0.61054897
0.041830279 0.0077555412 0.61236036
0.046959102 0.0071777604 0.61404878
0.051629692 0.007601459 0.61361116
-0.027237263 0.012594558 0.61311662
-0.024138594 0.013094083 0.61049998
0.033436574 0.012536311 0.61000007
0.037531622 0.012943151 0.61151308
0.042036954 0.01296741 0.61351645
0.047188561 0.01178915 0.61413115
-0.026674075 0.01774873 0.61350006
-0.023678023 0.017315412 0.61100006
0.028980691 0.019089086 0.61000001
0.032675654 0.017984089 0.61077857
0.037632942 0.017771609 0.61306244
0.041874897 0.01722347 0.61383039
0.045132428 0.016312132 0.61400002
-0.026311308 0.022460552 0.6135
-0.023027211 0.021853277 0.61066055
-0.017678682 0.020576216 0.61027169
0.024655858 0.024134722 0.61000001
0.027674453 0.022893397 0.61009097
0.032518707 0.022129467 0.61189187
0.0372198 0.022326654 0.61358732
0.040779237 0.020665323 0.61400002
-0.030306419 0.027904697 0.61366671
-0.027445836 0.027941201 0.61250001
-0.024358897 0.027017944 0.61000001
0.0033132508 0.02983216 0.61019444
0.017652372 0.029249374 0.61092925
0.023932325 0.027857192 0.61026192
0.027978593 0.027472943 0.61076403
0.031449851 0.027683791 0.61265945
0.036724523 0.026096975 0.61418062
-0.03083322 0.032489516 0.61260003
-0.027160855 0.032644715 0.61109096
-0.0030164942 0.033824317 0.61049336
0.0011641197 0.031496853 0.61068332
0.0082153352 0.032913566 0.61177874
0.012998285 0.032420434 0.61200678
0.016105091 0.032620225 0.61163765
0.022305828 0.033488601 0.61133873
0.027536452 0.032698508 0.6121543
0.03111116 0.032302231 0.61430889
-0.030955905 0.037241615 0.6121667
-0.027758963 0.037156533 0.6107778
-0.024358897 0.038550824 0.61000001
-0.0079842936 0.037253469 0.61035025
-0.0031510126 0.036155965 0.61092627
0.0020231158 0.036973804 0.61185563
0.0074304687 0.037965059 0.61243176
0.013118034 0.036632538 0.61230546
0.018049903 0.038030423 0.61232728
0.023072988 0.037490014 0.61242485
0.026724936 0.037350953 0.61329389
0.031105479 0.03686887 0.61400002
-0.030248802 0.041966625 0.61250007
-0.027313419 0.041903473 0.61158335
-0.023998493 0.041794449 0.61000001
-0.0073618176 0.042534161 0.61053294
-0.0030407459 0.040030718 0.61120105
0.0024059438 0.042936888 0.61220217
0.0075549684 0.042087507 0.61181659
0.012908557 0.041852623 0.61150765
0.017916193 0.042591814 0.61267269
0.023075894 0.042464782 0.61394024
0.027299091 0.042075284 0.61412519
-0.031305052 0.04667056 0.61368752
-0.027357034 0.046675324 0.61255556
-0.022685844 0.046608049 0.61080301
-0.017511245 0.048642099 0.61000001
-0.0082297558 0.04661968 0.61018848
-0.0029365383 0.045457847 0.61165291
0.0027860217 0.047150843 0.61159915
0.0075358204 0.047319766 0.61202621
0.012752784 0.047359712 0.61285216
0.018426085 0.04761447 0.61402971
0.022269644 0.046886738 0.61374998
0.0262686 0.045333408 0.61400002
-0.030322881 0.05186319 0.61400002
-0.027417228 0.052944548 0.6139167
-0.022309024 0.052871488 0.6130625
-0.017205521 0.052772857 0.61191666
-0.01317426 0.053628117 0.61057532
-0.0077481358 0.051988676 0.61063027
-0.0029266255 0.052582722 0.61256999
0.0033228192 0.051701695 0.61246449
0.0070159947 0.051284797 0.61332464
0.011962053 0.053001832 0.61340761
0.016586097 0.051593583 0.61366671
-0.021253733 0.055853616 0.61400002
-0.017718706 0.057313796 0.61246341
-0.012879367 0.057528138 0.61249995
-0.0082308361 0.056658499 0.61214596
-0.0029982727 0.056847923 0.61230439
0.0027901987 0.056616865 0.6121155
0.0079234298 0.057470791 0.61322773
0.012148496 0.0568223 0.61429131
-0.021576945 0.061003678 0.6138553
-0.017687587 0.061859816 0.61431623
-0.011819487 0.062552311 0.61387503
-0.0080411993 0.062206555 0.61408758
-0.0027496836 0.062678829 0.61333328
0.0030231406 0.061734293 0.61329913
0.0070055332 0.061959755 0.61413521
-0.0063803312 0.065648295 0.61400002
-0.0019230319 0.066879287 0.61402828
0.0020194903 0.066054523 0.61425167
-0.0027917083 0.072185874 0.61435521
-0.0027828552 0.078520715 0.61472261
-0.02387251 0.084129594 0.61478311
-0.026775071 0.088271365 0.61253512
-0.023827627 0.085708387 0.61489505
-0.030186251 0.092695005 0.61473745
-0.029604148 0.091002338 0.61383277
0.078277573 -0.14031389 0.61867267
0.077083983 -0.13713866 0.61627257
0.080354199 -0.13742219 0.61882472
0.074392103 -0.13205309 0.6161955
0.07727997 -0.13253471 0.61664081
0.08039099 -0.13230592 0.61938214
0.033157162 -0.12670988 0.61800003
0.035675973 -0.12588428 0.61610001
0.073056132 -0.12730442 0.61658496
0.076982901 -0.12685019 0.61782712
0.033029076 -0.12239707 0.61833334
0.036304858 -0.1221568 0.61565006
0.073228814 -0.12189054 0.61798435
0.076964013 -0.12256538 0.61771536
0.029106196 -0.11722505 0.61880004
0.03208708 -0.11748646 0.61710006
0.035031945 -0.11883 0.61500001
0.073124588 -0.11789033 0.61716086
0.077415965 -0.11767036 0.6175136
0.08134152 -0.11802737 0.61942244
0.029360766 -0.11174195 0.61800003
0.031566989 -0.11221136 0.61628574
0.074416056 -0.11168758 0.61540765
0.077189676 -0.11382277 0.61727768
0.0827756 -0.11239596 0.61792219
0.029408274 -0.10936272 0.61900002
0.032205239 -0.10784233 0.61658335
0.074592471 -0.10693929 0.61550212
0.078457236 -0.10715614 0.61932772
0.084263675 -0.10692593 0.61705995
0.029408274 -0.10058545 0.61900002
0.031998813 -0.10249322 0.61727786
0.035031945 -0.10138888 0.61500001
0.07477811 -0.10174779 0.61617112
0.078459896 -0.10323258 0.6194424
0.084285267 -0.10220779 0.61759496
0.022788437 -0.096041389 0.61800003
0.028057668 -0.096870631 0.61745834
0.032150224 -0.097834989 0.61550003
0.035031945 -0.099935457 0.61500001
0.07818161 -0.096313246 0.61679369
0.082134254 -0.097693689 0.61671919
0.022677813 -0.094121739 0.61500001
0.026311383 -0.094121739 0.61500001
0.072876744 -0.092070557 0.61540151
0.078489788 -0.092141427 0.61722523
0.081697136 -0.091783702 0.61896443
0.073030517 -0.08713004 0.61578286
0.078371167 -0.087638386 0.61799908
0.084310502 -0.088049531 0.61927384
0.073593065 -0.084701389 0.61571413
0.077488162 -0.083041005 0.61778939
0.081654653 -0.082428358 0.61766785
0.07725051 -0.077157654 0.61688131
0.081420645 -0.077879563 0.61758876
0.085403755 -0.076796971 0.61868465
0.077934794 -0.072507925 0.61704391
0.081818476 -0.072112918 0.61819375
0.086114407 -0.072229967 0.61796868
0.077680729 -0.067843139 0.61591309
0.081566662 -0.067758299 0.61712033
0.086636223 -0.066865675 0.61811572
0.078124322 -0.064074486 0.61518323
0.082354538 -0.062304974 0.6165669
0.087354541 -0.062554188 0.61880535
0.082571462 -0.057703149 0.61689639
0.086650059 -0.057436727 0.61812437
0.078634754 -0.050518937 0.61500001
0.082394637 -0.052583158 0.61666095
0.086624108 -0.052389022 0.61847234
0.078634754 -0.047612086 0.61500001
0.082826413 -0.047380432 0.61753565
0.086851157 -0.047383748 0.61967576
0.078013532 -0.041968502 0.61551851
0.082394995 -0.042539947 0.61796522
0.074274465 -0.035984669 0.61500001
0.077670217 -0.037064116 0.61609024
0.082208142 -0.038267888 0.6187126
0.069914192 -0.03017096 0.61500001
0.073658466 -0.032186389 0.61583793
0.077327907 -0.032016892 0.61768973
0.081251331 -0.034301374 0.61903238
0.067732662 -0.027301677 0.61540949
0.07206174 -0.027432971 0.61763078
0.076640651 -0.028624604 0.61874551
0.059418961 -0.02122476 0.61510539
0.063423946 -0.022734748 0.61622685
0.067030437 -0.023369899 0.61769062
0.072040498 -0.022536516 0.61725962
0.058039457 -0.017533816 0.61730367
0.064100482 -0.017816832 0.61500001
0.068132505 -0.016994772 0.61586398
0.071597517 -0.01771301 0.61816394
0.054791532 -0.01135021 0.61614323
0.059329268 -0.011575066 0.61999214
0.063633375 -0.012732893 0.61516666
0.067697503 -0.012566506 0.61680371
0.070987873 -0.012880391 0.61872703
0.057192408 -0.0066581503 0.61844194
0.062919199 -0.0070547294 0.61580014
0.06775862 -0.0077609718 0.61758071
0.071065962 -0.0085696382 0.61935234
0.05323758 -0.00098326872 0.61657774
0.057931114 -0.0023511569 0.61641598
0.062435851 -0.0025824271 0.61713839
0.066539839 -0.0032336225 0.6190421
0.049775634 0.0041527981 0.61517131
0.052344643 0.0035399313 0.6163938
0.056878485 0.0031096546 0.61683124
0.061277587 0.0030622042 0.61875051
0.049416322 0.0079441937 0.61584103
0.052287921 0.0083853398 0.61621058
0.056629639 0.0079778684 0.61762762
0.060080186 0.0069312351 0.61849999
-0.031124853 0.012715463 0.61549997
-0.02891884 0.014885273 0.61500001
0.047654949 0.014114985 0.61608857
0.051859021 0.01259956 0.61702514
0.056528714 0.013052112 0.61883301
-0.031158961 0.017826274 0.61616677
-0.02891884 0.017428769 0.61500001
0.038494688 0.018698821 0.61509144
0.043129623 0.01863447 0.61584705
0.047831409 0.017541518 0.61700714
0.052413136 0.017656801 0.617975
0.055976737 0.017160499 0.61922616
-0.031908028 0.022207651 0.61655563
-0.028337467 0.021861723 0.61500001
0.037234496 0.023051273 0.61519468
0.041735947 0.022809936 0.61649936
0.047114044 0.022476844 0.61752439
0.051080354 0.022004766 0.61903811
-0.032279272 0.026334835 0.61571437
0.037002537 0.028140759 0.61593521
0.042637933 0.027832771 0.61809921
0.046219144 0.025946897 0.6188333
-0.034090549 0.033862211 0.61650002
0.032730147 0.033939451 0.61550659
0.036845546 0.032784142 0.6173268
0.04070029 0.032504607 0.61817884
-0.033559009 0.036967106 0.61566669
0.027714048 0.039736595 0.61536825
0.032560151 0.037842527 0.61623126
0.036812551 0.03735337 0.61768425
0.041042883 0.037959736 0.61899757
0.027389634 0.043580092 0.61540115
0.032353435 0.042247593 0.61687249
0.036902506 0.0429185 0.61788267
0.040446345 0.043843225 0.61918068
-0.034218948 0.048116736 0.61620003
0.018841635 0.04914245 0.61524785
0.024461225 0.048237856 0.61586463
0.027917892 0.04782214 0.61545461
0.031432658 0.047978662 0.61690903
0.036153514 0.047676656 0.61858791
-0.040711079 0.052159421 0.61750007
-0.037689939 0.053100593 0.61752385
-0.03306159 0.052713227 0.61544448
0.0083552944 0.053715769 0.61519575
0.014060799 0.054540653 0.61587918
0.0187803 0.053023946 0.61554289
0.022173472 0.052973807 0.6164633
0.027025567 0.052684087 0.61731046
0.032001819 0.053127751 0.61861295
0.035747424 0.050578833 0.61900002
-0.036779694 0.05776003 0.61887503
-0.032669056 0.057236969 0.6171667
-0.02749571 0.057097793 0.61566669
-0.022527754 0.058061562 0.61510003
-0.018260377 0.05945703 0.61500001
-0.0007811524 0.055408355 0.61505365
0.002493361 0.057486311 0.61608219
0.007511517 0.056685735 0.61570138
0.012895127 0.059102159 0.61580884
0.017521622 0.056836907 0.61647987
0.022331117 0.057169225 0.61746103
0.026750125 0.057330139 0.61857116
0.030538149 0.056917548 0.61941516
-0.031051949 0.063002355 0.61888891
-0.027607029 0.062443491 0.61816669
-0.022470893 0.063519761 0.61612362
-0.01679066 0.062612191 0.61538279
-0.013164606 0.062828764 0.61531311
-0.0037113838 0.060326356 0.61560714
0.0028311685 0.064763919 0.61668265
0.0077591403 0.062959135 0.61600822
0.012147669 0.063066408 0.61651146
0.018245824 0.062108532 0.61782229
0.022030892 0.062919728 0.61914629
-0.026116289 0.067579314 0.61712611
-0.022448156 0.067866363 0.61665142
-0.016874278 0.066666953 0.61659104
-0.012087896 0.06665545 0.61596143
-0.0079026651 0.066866994 0.61538339
-0.0033667115 0.067623012 0.6161356
0.0026212574 0.067510486 0.61510003
0.0080353813 0.067310497 0.61675113
0.01322033 0.066912942 0.61766744
0.017590584 0.067455739 0.61845899
0.022097159 0.067474246 0.6194768
-0.021745648 0.072368175 0.61773276
-0.017472342 0.071808718 0.617908
-0.012450023 0.071230091 0.6170947
-0.0073728939 0.071916945 0.61719126
-0.0033898586 0.073478997 0.61768401
0.0023888678 0.072051615 0.61735421
0.007963012 0.07249254 0.61831045
0.01326602 0.072455794 0.61830395
0.017209066 0.072243787 0.618958
0.024393084 0.07283888 0.61988747
-0.021555603 0.077358119 0.61860114
-0.017286945 0.077469163 0.61835319
-0.012277775 0.077654794 0.61891568
-0.0075253933 0.078210294 0.61866665
-0.0015134644 0.076126263 0.61730725
0.0017734423 0.077018462 0.61836618
0.007126682 0.077835418 0.61913204
0.012451839 0.078162722 0.61955577
0.015166974 0.078836866 0.61941785
-0.02154246 0.082120039 0.61806262
-0.016874792 0.081440613 0.6191119
-0.012276604 0.082230851 0.61866665
-0.0086266082 0.080811694 0.61900002
-9.9807978e-05 0.080429703 0.61573219
0.0013925983 0.082903475 0.61681426
0.0058964281 0.083144642 0.61919719
-0.025822952 0.08835794 0.61642796
-0.021218695 0.085579209 0.61795861
-0.017250983 0.087036014 0.61933333
-0.013259063 0.086419404 0.61900002
0.0020459418 0.086998396 0.61698002
0.0056714322 0.087965146 0.61849803
-0.030523708 0.09372291 0.6184442
-0.027309053 0.090999171 0.61858618
-0.012303652 0.091931567 0.61999995
0.0033143237 0.09058474 0.61680716
-0.035836607 0.098299481 0.618536
-0.032999732 0.097197026 0.61871827
-0.011174507 0.1130821 0.61901939
0.080341503 -0.1271897 0.62163448
0.077799484 -0.12170475 0.62175721
0.081626616 -0.12265877 0.62240577
0.026912408 -0.11750963 0.62050003
0.079920426 -0.11734805 0.62362581
0.083470806 -0.11831517 0.62369025
0.026588049 -0.11244609 0.62150007
0.082829967 -0.11353525 0.6230858
0.085603952 -0.11206853 0.62380564
0.028672539 -0.10749355 0.62158334
0.082559146 -0.10682014 0.62314951
0.086121723 -0.10827357 0.6242066
0.027588477 -0.10254317 0.62200004
0.08250989 -0.10262179 0.62286663
0.08656963 -0.10347848 0.62428433
0.022541676 -0.098382749 0.62125003
0.025813278 -0.098630145 0.62049997
0.082387701 -0.097220294 0.62237191
0.086763516 -0.098277189 0.62397915
0.082547173 -0.092309296 0.6221227
0.087027207 -0.09332145 0.62438577
0.083177492 -0.087649144 0.62218624
0.087638773 -0.088388868 0.62305456
0.090654917 -0.085077226 0.62490767
0.082923941 -0.082331769 0.62179404
0.087900698 -0.082026429 0.62323803
0.091200233 -0.082707986 0.62419289
0.0821907 -0.077779867 0.62079173
0.087140232 -0.077563047 0.62218481
0.09190242 -0.079817563 0.6247974
0.083168022 -0.07360325 0.6210413
0.088565022 -0.072873138 0.62230629
0.093109459 -0.073133521 0.62493438
0.08390595 -0.066870868 0.62175006
0.08805836 -0.06707409 0.62198287
0.091986641 -0.068422735 0.6229701
0.083669782 -0.06411685 0.62
0.087189592 -0.062722132 0.621885
0.093256742 -0.063314043 0.62356102
0.087813869 -0.058091398 0.62157476
0.090891324 -0.057198465 0.62176299
0.095029905 -0.058100633 0.62446171
0.08778549 -0.052602805 0.62172526
0.09101595 -0.052815504 0.62207383
0.095326096 -0.053133812 0.62483448
0.083669782 -0.04726655 0.62
0.087859191 -0.047349144 0.62251157
0.090979278 -0.048468702 0.62267578
0.083714761 -0.042160064 0.62033337
0.08702901 -0.042327762 0.62165183
0.090720564 -0.043436438 0.62376612
0.083421409 -0.036662299 0.62063098
0.087100282 -0.037584431 0.62245011
0.090570211 -0.038370118 0.62466341
0.079274058 -0.030416252 0.62
0.082537867 -0.032239418 0.62182087
0.085866928 -0.032189019 0.62344944
0.072474569 -0.025018603 0.62051374
0.077780351 -0.026870597 0.62196398
0.081697784 -0.028181519 0.62316024
0.085650362 -0.029394306 0.62401587
0.069200724 -0.021909207 0.62143707
0.073549353 -0.02238078 0.62173343
0.077000044 -0.022039136 0.62261003
0.080218434 -0.024105024 0.62377077
0.06169387 -0.017932912 0.62063527
0.066661552 -0.017875092 0.62237895
0.07319741 -0.0180944 0.6223796
0.076499373 -0.01744383 0.62184089
0.06497781 -0.011814748 0.62280643
0.072832167 -0.012349502 0.62024999
0.075858787 -0.012964809 0.62209672
0.062050872 -0.0054132217 0.6209116
0.067463242 -0.0060694576 0.62262678
0.072487235 -0.0084574409 0.62147224
0.075580396 -0.0086717019 0.62315273
0.059525657 -0.0018005488 0.62022811
0.064609796 -0.0017339776 0.62319714
0.067318156 -0.0029669548 0.62178493
0.070935465 -0.0021402079 0.62264156
0.075194031 -0.003220614 0.62460852
0.058206864 0.0038634518 0.62071925
0.063807771 0.0029791393 0.62248236
0.068671271 0.0020158594 0.62312621
0.070823647 0.0010917364 0.62300003
0.057630777 0.0085966587 0.62093282
0.0630069 0.0080200229 0.62339753
0.066828616 0.0073553463 0.62349999
0.057674419 0.013438042 0.62213588
0.062774792 0.012089889 0.62298596
0.065530099 0.012153712 0.62400001
0.049174573 0.019301154 0.62052244
0.052962441 0.018294044 0.62207669
0.057409428 0.017500404 0.62154084
0.061695948 0.017764503 0.6225
0.065038539 0.015103106 0.62400001
0.044292081 0.024702309 0.62041628
0.047856338 0.022157034 0.621131
0.053445529 0.022892943 0.62227029
0.057120297 0.022186013 0.62229896
0.061147369 0.021955794 0.62316668
0.044168785 0.028917409 0.62118727
0.048273798 0.027887579 0.62087834
0.052802548 0.027017295 0.62279439
0.057216115 0.026864434 0.62312508
0.060614448 0.025425982 0.62400001
0.043629363 0.033119719 0.62037021
0.048074871 0.033020571 0.62241745
0.051454585 0.032909803 0.62370348
0.038344152 0.038231563 0.62004447
0.043993417 0.037400816 0.62063247
0.047749553 0.03740973 0.62278742
0.051013369 0.03781436 0.62393171
0.038864419 0.042908873 0.62033349
0.043278437 0.042974893 0.62137443
0.047158804 0.042911571 0.62329787
0.050508212 0.042374682 0.62372309
-0.035014924 0.045776401 0.62
0.038391728 0.047389798 0.6207124
0.042585142 0.048147552 0.62210798
0.047634441 0.047763888 0.62355345
0.050466772 0.046426319 0.62378901
-0.040875901 0.054567862 0.62
-0.038709819 0.050212592 0.62050003
0.034200672 0.054614857 0.6203413
0.037370529 0.053166844 0.62142956
0.041945331 0.053123638 0.62362158
0.045867484 0.051233172 0.62400001
-0.041007757 0.059153799 0.62200004
-0.038709819 0.059011143 0.62050003
0.028321743 0.058551565 0.62008089
0.033471595 0.05792452 0.62138045
0.03820901 0.057527181 0.62319934
0.041879248 0.057063341 0.62428647
-0.041073687 0.060721233 0.62300003
-0.036779717 0.062359661 0.62150002
-0.032830589 0.064118087 0.62024999
0.023691796 0.064209282 0.62053066
0.028142411 0.062324297 0.62096179
0.032760307 0.062937677 0.62280899
0.037913166 0.062306084 0.62339479
0.043940526 0.064058363 0.62448013
-0.036647666 0.06732931 0.62283343
-0.032154754 0.06790182 0.62133336
-0.028421329 0.067755051 0.62
0.019204341 0.067784622 0.62008488
0.022904526 0.067414112 0.62112319
0.028071672 0.067749821 0.62258261
0.033153228 0.065774195 0.62312776
0.03568022 0.06641034 0.62222672
0.042412698 0.067375392 0.62302506
0.045084409 0.069212303 0.6233052
-0.035486609 0.072862051 0.62400001
-0.032214601 0.07207422 0.6225
-0.027692625 0.071794361 0.62008333
-0.024758222 0.072150782 0.62
0.012823828 0.074769393 0.6203149
0.016800448 0.072022796 0.62023026
0.022678377 0.072327979 0.62232399
0.027063137 0.073172234 0.62352526
0.033766486 0.073266134 0.62158388
0.036094893 0.071748286 0.62149608
0.040451527 0.073031425 0.62250537
0.045225777 0.072602913 0.62347543
-0.031497642 0.07745418 0.62287498
-0.027752765 0.077456988 0.62141675
-0.024758222 0.077645443 0.62
-0.0059069227 0.079195268 0.62020087
-0.0030637821 0.079481147 0.62030995
0.0020154952 0.078716353 0.62000543
0.0060118884 0.078744374 0.62
0.012789199 0.077114627 0.62054807
0.017868843 0.077583797 0.62161463
0.022470143 0.077330276 0.6225704
0.026781993 0.078324541 0.62376982
0.03331266 0.077702068 0.62355894
0.03840166 0.078254633 0.62483311
0.040012926 0.076931886 0.62431335
-0.030816738 0.082201801 0.62400001
-0.0278129 0.083141476 0.62274998
-0.023827778 0.082187429 0.62055004
-0.010384917 0.084913403 0.62089592
-0.0064746835 0.082267374 0.62072104
-0.002785522 0.082600527 0.62144452
0.0016711239 0.081852913 0.62115151
0.0073099448 0.082500368 0.62053174
0.012170268 0.082639299 0.62132007
0.017563455 0.083053209 0.62274861
0.021888401 0.082955047 0.62415898
-0.027409075 0.087033235 0.6231429
-0.022220438 0.08775159 0.62068349
-0.016514935 0.087214708 0.62110883
-0.010757007 0.087617241 0.62
-0.006834039 0.087148763 0.62078995
-0.0028433173 0.087011881 0.62154764
0.0010597369 0.087333269 0.62213659
0.0073607848 0.08762826 0.62129307
0.012155801 0.08768522 0.62284517
0.017419839 0.087367527 0.62344235
0.021701049 0.086667463 0.62410855
-0.027372498 0.093335763 0.62240523
-0.022464942 0.093351789 0.62292618
-0.017189855 0.093022913 0.62186694
-0.012180686 0.092872098 0.6215204
-0.0065521151 0.091739923 0.62073141
-0.0027873965 0.092203021 0.62183338
0.0018212104 0.092976578 0.62317753
0.0084214462 0.09107583 0.62223494
0.012211084 0.092584722 0.62212896
0.017770248 0.091968924 0.62362522
0.02079764 0.091049977 0.62400001
-0.031217141 0.09750855 0.62292653
-0.0271721 0.095988661 0.62280697
-0.021945057 0.097418688 0.6244244
-0.017034711 0.097598366 0.62339211
-0.012502431 0.097471967 0.62265474
-0.0080615496 0.096652329 0.62268502
-0.0020050183 0.096135318 0.62286407
0.0023560997 0.097333677 0.62175006
0.0065959208 0.09838587 0.62239158
0.012055557 0.097004451 0.62344772
0.017848248 0.096211411 0.62400001
-0.03753598 0.102005 0.62358981
-0.034762137 0.1000163 0.6224941
-0.020461593 0.10038999 0.62449449
-0.017162329 0.10092355 0.62349999
-0.01183652 0.10218092 0.62355524
-0.007203605 0.10307286 0.6223889
-0.0027885379 0.10251791 0.6220001
0.0017747072 0.1026359 0.62266403
0.0073164683 0.10134806 0.62412643
-0.010662553 0.10678006 0.62400001
-0.007197246 0.10770806 0.62216836
-0.0026733065 0.10769119 0.62335098
0.0023610014 0.10744706 0.62287509
0.0060506752 0.10505959 0.62400001
-0.010170987 0.11206441 0.62400001
-0.0078287534 0.11169335 0.62224478
-0.003136962 0.11227479 0.6234625
0.0019946457 0.1119747 0.62350005
-0.042614311 0.11980657 0.62400001
-0.010170987 0.11538248 0.62400001
-0.0071089575 0.11727646 0.6227634
-0.0026911388 0.1174255 0.62377346
0.00088923733 0.11538248 0.62400001
0.084407263 -0.14220987 0.62587482
0.085744381 -0.14398441 0.62758529
0.083525941 -0.13821976 0.62659514
0.085341848 -0.13767362 0.62738115
0.083782963 -0.13283083 0.62636596
0.085856505 -0.13370858 0.62902236
0.083234385 -0.12740292 0.62645787
0.085616603 -0.12700161 0.62955987
0.08367791 -0.12273671 0.62690109
0.085437 -0.12362061 0.62902099
0.08326526 -0.1183916 0.62736368
0.086572759 -0.11699446 0.62778306
0.023082253 -0.11207888 0.62600005
0.025262147 -0.11042278 0.625
0.084084861 -0.11126201 0.62672412
0.087205917 -0.11082765 0.62966645
0.023138156 -0.10567349 0.62750006
0.02602089 -0.10718507 0.62550002
0.084736109 -0.10728195 0.6267885
0.086630799 -0.10614149 0.62921274
0.023481242 -0.10406689 0.62674999
0.025262147 -0.10377601 0.625
0.084852807 -0.10268678 0.62670583
0.08698374 -0.10213891 0.62897307
0.087094963 -0.097661272 0.6274848
0.087853082 -0.093114793 0.6275574
0.090327755 -0.090103626 0.62800479
0.08438953 -0.086835325 0.62533337
0.08775723 -0.087280288 0.62648547
0.091082722 -0.087043658 0.62775922
0.084479496 -0.08212056 0.62600005
0.087497085 -0.083524682 0.62726784
0.09187986 -0.082391083 0.62761068
0.084513232 -0.077344194 0.62625003
0.086370856 -0.078426197 0.62900001
0.092537969 -0.077223279 0.62667096
0.084412016 -0.072816551 0.62550002
0.086302206 -0.071680456 0.62849998
0.092286445 -0.073082633 0.62644881
0.096043989 -0.072072916 0.62862039
0.086321101 -0.068033263 0.62683338
0.092393026 -0.066871658 0.62556237
0.096626006 -0.067066275 0.62835783
0.087959126 -0.063272364 0.62760001
0.092166565 -0.062613048 0.62520814
0.096773386 -0.062517472 0.6282596
0.088584006 -0.057733569 0.62625003
0.091374733 -0.057376757 0.6266585
0.09652558 -0.057676688 0.62881649
0.088917762 -0.053271808 0.62600005
0.091260329 -0.052516401 0.62692761
0.096551381 -0.052896906 0.62908232
0.088917762 -0.047723971 0.62600005
0.09242063 -0.047760706 0.62637061
0.096459001 -0.048371922 0.62924331
0.089288279 -0.041299351 0.62560135
0.092164956 -0.042896528 0.62706339
0.096931174 -0.044457898 0.62960887
0.088989988 -0.037546538 0.62555206
0.09175396 -0.037541296 0.62731761
0.084344536 -0.030661544 0.625
0.08816275 -0.0319243 0.62703234
0.091522276 -0.033983942 0.62724948
0.083646245 -0.026445519 0.62620682
0.08701881 -0.027967378 0.62844115
0.091908433 -0.028254442 0.62870401
0.074986249 -0.020623658 0.62510216
0.07908605 -0.02222183 0.62686634
0.082532719 -0.022081144 0.62755454
0.087280683 -0.023707423 0.62916255
0.072120614 -0.016215589 0.62505102
0.078957379 -0.017595662 0.62609893
0.082582712 -0.017509859 0.62732536
0.072182454 -0.012453934 0.62584585
0.077454194 -0.012413546 0.62744188
0.082560748 -0.012772384 0.62754029
0.072425686 -0.0074593099 0.62691128
0.075974509 -0.0074614715 0.62751436
0.081918739 -0.0074565033 0.62729675
0.068137616 -0.0019330496 0.62546027
0.073134221 -0.0027435303 0.62745774
0.078520499 -0.0022906389 0.62790471
0.064145081 0.0039044095 0.62518156
0.068415172 0.0028851039 0.62659591
0.073019959 0.0017074894 0.62705064
0.076644249 0.0027985536 0.62899053
0.068259783 0.0082426602 0.62722224
0.072472125 0.0078183608 0.62872225
0.062243517 0.013502374 0.62575382
0.06778378 0.01231592 0.62787914
0.072300345 0.011416759 0.62876821
0.062603898 0.018268775 0.6265415
0.067648791 0.017063631 0.62798196
0.07164564 0.017861435 0.62877774
0.057561725 0.021969464 0.62599552
0.062980637 0.022842677 0.62705946
0.067900896 0.022065224 0.62875319
0.070018515 0.022436414 0.62909967
0.053750195 0.028868316 0.62542224
0.058226403 0.028590366 0.6257695
0.062793158 0.02745378 0.62804931
0.067109793 0.026490085 0.62866831
0.053470377 0.032456666 0.62531918
0.057094745 0.033212051 0.62656075
0.062423944 0.032387782 0.62853783
0.065836139 0.031863503 0.62879997
0.053171683 0.03786435 0.62547415
0.057012871 0.037310172 0.62701094
0.061233971 0.036474209 0.62811995
0.049709719 0.044250481 0.62616611
0.052936498 0.042804964 0.62617022
0.057529327 0.042438142 0.62797868
0.061724868 0.043157533 0.62879997
0.048165381 0.048401907 0.6256876
0.052742835 0.048298132 0.62713432
0.057391815 0.04693364 0.62904871
0.043971617 0.053399503 0.62510055
0.048134681 0.053258359 0.62567902
0.052145444 0.052885067 0.62787181
0.056190826 0.052151136 0.62871426
0.043700021 0.058808442 0.62536091
0.047507696 0.057509888 0.62647307
0.051720586 0.057021823 0.62787449
0.05571153 0.056660675 0.62900001
0.038183205 0.063769564 0.62594461
0.04237479 0.06232205 0.62650239
0.047771808 0.062530912 0.62773937
0.052658617 0.062342461 0.6293487
0.02969333 0.069778524 0.625
0.03332448 0.068034559 0.62539876
0.037766468 0.068057209 0.62652153
0.04245406 0.067096286 0.62735581
0.04845164 0.067662843 0.62732005
0.052825212 0.067629538 0.62908298
-0.037266716 0.073717348 0.625
0.028599393 0.073505707 0.62529171
0.032792535 0.072171599 0.62600398
0.037983201 0.072341338 0.62753916
0.042427115 0.07303901 0.62762499
0.048488915 0.072206981 0.62744284
0.054184917 0.072315432 0.6291343
-0.038076255 0.07730826 0.6261667
0.028395804 0.077804737 0.62536138
0.032726463 0.077102847 0.62650007
0.037245516 0.078047976 0.62734926
0.041905142 0.078006722 0.62798965
0.048704535 0.077367343 0.62844849
-0.03680623 0.082080416 0.62720007
-0.032860827 0.082888983 0.62547225
0.027310276 0.083255403 0.62567937
0.032491319 0.082220577 0.62671667
0.03683164 0.082644515 0.62860674
0.042452067 0.081820957 0.62882149
0.046174828 0.080726758 0.6299721
-0.036939118 0.087891616 0.62777781
-0.032384485 0.087612398 0.62577778
-0.029389065 0.088241771 0.625
0.017022116 0.089316018 0.62547779
0.023229457 0.088896535 0.62539685
0.02746531 0.087414399 0.62662983
0.032628208 0.086651579 0.62867284
0.037119891 0.086247534 0.62978613
-0.038452029 0.092416435 0.62827778
-0.032412708 0.092130817 0.62633336
-0.028835166 0.093596116 0.625
0.0046589822 0.094174966 0.62509674
0.012486669 0.092516229 0.6257931
0.01696364 0.09261284 0.6257686
0.022218624 0.09305758 0.62656659
0.026748277 0.09267202 0.62766403
0.032060847 0.093023621 0.62919372
-0.036809638 0.097687498 0.62874997
-0.031794909 0.098644868 0.62656295
-0.027454648 0.098633826 0.6255815
-0.024957884 0.099319726 0.625
-0.0061004832 0.099874094 0.62519205
-0.0012546182 0.099581249 0.62580431
0.0046162587 0.098721281 0.62642348
0.0093874019 0.099219069 0.62712556
0.013504801 0.098225504 0.62648177
0.017772928 0.097850539 0.62724346
0.022753099 0.09768486 0.6281234
0.02691422 0.096992321 0.62889075
0.03136988 0.096239083 0.62900001
-0.036122929 0.10197531 0.62568957
-0.032073479 0.10290875 0.62842762
-0.027683372 0.10248876 0.62629902
-0.023215443 0.10162646 0.62541276
-0.017988622 0.10305704 0.62531161
-0.013656677 0.10430376 0.62542725
-0.0070563778 0.10222782 0.62597573
-0.0015590116 0.10280411 0.62657142
0.0028136768 0.10233375 0.62720615
0.007918831 0.10387279 0.62656105
0.013598427 0.1030402 0.62767953
0.017922726 0.10219312 0.62748688
0.021668531 0.10328192 0.62863308
0.026264451 0.10263365 0.62915236
-0.035259087 0.10838167 0.62658322
-0.0320765 0.10722829 0.62698567
-0.026871219 0.10750992 0.62739646
-0.023232171 0.10728209 0.62608689
-0.018409654 0.10757256 0.62601727
-0.013027116 0.10727079 0.62565362
-0.0077012591 0.10785493 0.62734461
-0.0028093357 0.10772591 0.628102
0.0032976121 0.10669293 0.62714815
0.00849507 0.10796328 0.62733448
0.012381961 0.10726703 0.62820977
0.016804775 0.10828058 0.62897813
0.022153497 0.10649602 0.62900001
0.025423827 0.10590142 0.62900001
-0.041403331 0.11463795 0.62800002
-0.037752975 0.1148205 0.62900001
-0.030198952 0.11011294 0.62556869
-0.027444923 0.11232994 0.62658995
-0.023073671 0.11257887 0.62634587
-0.018362476 0.11223914 0.62635273
-0.012987973 0.11230274 0.62615144
-0.0077461414 0.11311151 0.62808824
-0.0023907814 0.11273053 0.62778223
0.0037580382 0.11291468 0.62722331
0.0078374529 0.1131767 0.6277681
0.0119867 0.11132914 0.62784761
0.017088737 0.11264382 0.62900001
-0.041304439 0.11658446 0.62650001
-0.03767569 0.11755866 0.62775004
-0.027149204 0.11634861 0.6267578
-0.023337938 0.11806605 0.62663144
-0.018117517 0.11740265 0.62653589
-0.012672412 0.11763933 0.62661946
-0.0076682759 0.11890024 0.62759238
-0.0018765389 0.1176491 0.62773561
0.0022452993 0.11822301 0.62551844
0.0068333913 0.11800885 0.62710422
0.011921934 0.11788007 0.62825388
0.01626103 0.11805758 0.62914121
-0.041842747 0.12182382 0.62594444
-0.037882712 0.12188888 0.62781823
-0.025993686 0.12070648 0.62798673
-0.022940874 0.12175988 0.62745023
-0.018057138 0.12225243 0.62707055
-0.012754577 0.12253032 0.62784129
-0.0076720309 0.12261028 0.62829584
-0.0028069685 0.12317257 0.62611109
0.0024609887 0.12253471 0.62627387
0.0075675608 0.12231715 0.62741673
0.011850708 0.12197096 0.62850004
0.015736124 0.12248029 0.62891299
-0.041403331 0.125027 0.62800002
-0.038867861 0.12559772 0.62900001
-0.02090583 0.12671261 0.62900001
-0.017565932 0.12619612 0.6281203
-0.012942582 0.12726472 0.62871748
-0.0072563132 0.12779151 0.62700003
-0.0028131816 0.12790552 0.62755561
0.0023805182 0.12733874 0.62841666
0.007288368 0.1258207 0.62900001
0.016410187 0.12726408 0.6285556
-0.018110469 0.13160531 0.62893373
-0.012449579 0.1326738 0.62731254
-0.007263503 0.13237768 0.62766671
-0.0028183986 0.13261205 0.6287778
0.00015310611 0.13117214 0.62900001
-0.016694041 0.13612719 0.62900001
-0.012471762 0.13699199 0.62841678
-0.0072707795 0.13658425 0.62825
-0.0038109284 0.13711819 0.62900001
-0.011738998 0.14009121 0.62900001
-0.0072794594 0.14009121 0.62900001
0.084661298 -0.14567526 0.63308299
0.086063161 -0.14521833 0.6313048
0.084481366 -0.14228062 0.63254291
0.083618723 -0.13663405 0.6322431
0.084335409 -0.13228439 0.63139939
0.08422856 -0.12879349 0.63003516
0.085532911 -0.12731972 0.63229358
0.08558809 -0.12282403 0.63146347
0.084308527 -0.11756728 0.63195062
0.083819956 -0.11338049 0.63212287
0.087547101 -0.11241479 0.63198602
0.084242448 -0.10766979 0.63264495
0.087279186 -0.10795242 0.63224643
0.087481342 -0.1030835 0.63302433
0.087571062 -0.098544143 0.6319716
0.090007931 -0.095172308 0.63110465
0.088582471 -0.092634775 0.63148236
0.092597939 -0.092330813 0.63398153
0.089179032 -0.086675137 0.63133335
0.092506424 -0.087581635 0.63271534
0.088171206 -0.082098193 0.63183337
0.09251292 -0.083162174 0.63281429
0.096199676 -0.08223246 0.63445282
0.087780118 -0.077307828 0.63200003
0.097385392 -0.078154996 0.63274193
0.088121377 -0.072901875 0.63266671
0.09899354 -0.072975084 0.63294238
0.10016502 -0.074527964 0.6337558
0.088206574 -0.069037758 0.63150001
0.099090591 -0.06718187 0.63128388
0.10068977 -0.067023471 0.63345689
0.091408029 -0.062471665 0.63300002
0.098978326 -0.063294977 0.63143885
0.10037013 -0.062484473 0.63276291
0.092559181 -0.057670224 0.6323334
0.098207735 -0.05997422 0.63040143
0.10262956 -0.057589319 0.63353473
0.093330048 -0.052703273 0.63250005
0.10185034 -0.052941959 0.63323712
0.093542486 -0.047080245 0.63225007
0.098135099 -0.047509965 0.63216269
0.10236561 -0.047551315 0.63379383
0.093915887 -0.041474804 0.63225001
0.097038113 -0.041662566 0.63117355
0.10145371 -0.043046422 0.63412344
0.094106868 -0.037124917 0.63097906
0.097595684 -0.037820399 0.63154352
0.10126229 -0.038040273 0.63387656
0.089485928 -0.030906839 0.63000005
0.09285292 -0.032281201 0.63218325
0.097882576 -0.032423493 0.63326031
0.088288926 -0.026383869 0.63155061
0.090839505 -0.027853023 0.63297844
0.096927226 -0.028195864 0.63326424
0.083652943 -0.021810414 0.63133252
0.088003978 -0.022914691 0.63359427
0.091374204 -0.023204319 0.63291973
0.096246719 -0.02458456 0.63447112
0.082242645 -0.017105928 0.63213158
0.086611532 -0.018055312 0.63154817
0.091779917 -0.01851747 0.63416111
0.07759472 -0.010317778 0.63006818
0.081076294 -0.012003243 0.63220263
0.087354705 -0.01340624 0.63205791
0.090478048 -0.012741248 0.63455206
0.0782452 -0.0072269314 0.631109
0.081000179 -0.0078721596 0.63349998
0.087639958 -0.0082936641 0.63345337
0.074171469 -0.00057049422 0.63058841
0.078494377 -0.0020407198 0.63275915
0.082859546 -0.0023725752 0.63078356
0.086771257 -0.0038812198 0.63348001
0.073589757 0.0018690652 0.63081968
0.077987291 0.0018654156 0.63346291
0.081951082 0.0030105554 0.63306123
0.072757125 0.0065714139 0.63100934
0.077599943 0.0076733967 0.63272965
0.081438266 0.0079474663 0.63457811
0.072811954 0.013136052 0.63063937
0.077060021 0.012391156 0.63314682
0.067732811 0.019236831 0.63008493
0.07266923 0.017576486 0.63128883
0.076642975 0.017478531 0.63388783
0.068115845 0.022687275 0.63079387
0.072472245 0.022574404 0.63194507
0.075853407 0.022746492 0.63441807
0.067645639 0.027710322 0.63034892
0.071414791 0.027378431 0.63242775
0.064341277 0.03490841 0.63002473
0.068035066 0.032762721 0.6313706
0.071324579 0.031613868 0.63344294
0.063080765 0.037762597 0.63033491
0.067538813 0.03730005 0.63261265
0.071111284 0.036517572 0.63397539
0.06273327 0.042514496 0.63142467
0.066824153 0.041503508 0.63381588
0.070520148 0.04153372 0.63349998
0.05852516 0.049294159 0.63006628
0.062193066 0.047375966 0.63211983
0.066951737 0.046577811 0.63337505
0.058126591 0.05281857 0.63082176
0.062173419 0.052229654 0.63307679
0.053709291 0.057802424 0.63040453
0.057350501 0.057415035 0.63173872
0.061999924 0.057146251 0.63363254
0.049642261 0.06298355 0.63072717
0.052748382 0.063726977 0.63134032
0.056949634 0.06233998 0.63325429
0.06123263 0.061938647 0.63386631
0.042389084 0.069093026 0.63019776
0.047850654 0.066686273 0.63156885
0.053341348 0.06721098 0.6321128
0.056912854 0.06793265 0.63236785
0.062751651 0.067114457 0.63338876
0.043127943 0.073110558 0.63086176
0.04872008 0.072895423 0.63175243
0.052196242 0.07224039 0.63366681
0.058010869 0.072410703 0.63160467
0.062823966 0.071953848 0.63398755
0.043059476 0.07752119 0.63087356
0.047985546 0.078367688 0.63337535
0.052604184 0.077017315 0.63197219
0.057491928 0.076669782 0.63294971
0.038498692 0.082802154 0.63068372
0.042523313 0.082373224 0.63208294
0.047719117 0.082216896 0.63220775
0.05210232 0.081534758 0.63344562
0.033698797 0.089274712 0.6305151
0.037166048 0.088557601 0.6310395
0.04163418 0.087605916 0.63256466
0.045963868 0.087227531 0.63407981
0.03328969 0.09375713 0.63128823
0.036833595 0.092986062 0.63180792
0.041324537 0.092345357 0.63330573
-0.040046316 0.098625407 0.63000005
-0.038557436 0.098625407 0.63000005
0.027586415 0.098473102 0.63046336
