# .PCD v0.7 - Point Cloud Data file format
VERSION 0.7
FIELDS x y z rgb
SIZE 4 4 4 4
TYPE F F F U
COUNT 1 1 1 1
WIDTH 1060
HEIGHT 1
VIEWPOINT 0 0 0 1 0 0 0
POINTS 1060
DATA ascii
-0.27861631 0.18882295 0.65900004 4285627006
-0.27796292 0.1923337 0.65830773 4285167223
-0.27903911 -0.021460166 0.66000003 4289702827
-0.26500115 -0.021460166 0.66000003 4288191904
-0.26385421 -0.020773098 0.66300005 4287928729
-0.26500115 -0.019120503 0.66000003 4287335054
-0.26283151 -0.016842099 0.66240007 4287992984
-0.26118237 -0.012425417 0.66060007 4288980907
-0.25817403 -0.011568948 0.66300005 4288717991
-0.26032183 -0.0074221888 0.66000003 4285164395
-0.25735804 -0.0074495636 0.6624167 4286020219
-0.26032183 -0.0011830882 0.66000003 4287730059
-0.25748017 -0.0028943727 0.66218185 4286018418
-0.26032183 0.0019364622 0.66000003 4288125595
-0.25828293 0.0019451375 0.66277778 4287730838
-0.26032183 0.0073956754 0.66000003 4288650918
-0.25905621 0.0074270824 0.66275012 4288651431
-0.26032183 0.012854889 0.66000003 4288060579
-0.2588177 0.013137159 0.66300005 4288125602
-0.33201402 0.01918078 0.66300005 4286609786
-0.32895193 0.01909399 0.66000003 4286215028
-0.26032183 0.017534213 0.66000003 4288257442
-0.25851703 0.017414441 0.66287506 4288454562
-0.33148098 0.022330157 0.66350007 4286543731
-0.32879448 0.02225502 0.66125 4286281328
-0.26032183 0.022213539 0.66000003 4288387744
-0.25851703 0.022506457 0.66287506 4288585122
-0.33094558 0.026271239 0.66400003 4286675828
-0.32736352 0.027253717 0.66120005 4286018153
-0.26032183 0.026892865 0.66000003 4288125858
-0.2580561 0.027171794 0.66300005 4288323237
-0.32772717 0.032463849 0.6622501 4285952617
-0.26063377 0.031884145 0.66000003 4288322465
-0.25768301 0.032511391 0.66324997 4288716965
-0.32731345 0.03798474 0.66300005 4286150251
-0.3242726 0.036251519 0.66000003 4285559399
-0.2618432 0.038229771 0.66122222 4288453026
-0.25876161 0.037480365 0.66333342 4288519846
-0.32764256 0.042727467 0.66366673 4286345836
-0.32476392 0.042555001 0.66100001 4286543983
-0.26500115 0.042490616 0.66000003 4288453279
-0.26259774 0.042501792 0.66260004 4288124314
-0.32780713 0.045886591 0.66400003 4286213993
-0.32476392 0.045679271 0.66100001 4286214763
-0.2660487 0.047217984 0.6606667 4287202699
-0.26392075 0.04739666 0.6631667 4287400078
-0.26565489 0.05213502 0.6603334 4286741636
-0.26357532 0.052319672 0.66314286 4287005066
-0.26578566 0.058435999 0.66040003 4286677124
-0.26322699 0.057098687 0.66300011 4286611588
-0.26718187 0.063057117 0.66154552 4285494640
-0.26385877 0.061024889 0.66366673 4286283394
-0.27086896 0.06833028 0.66100001 4282146602
-0.26845235 0.06733752 0.66275007 4282211372
-0.27187717 0.072296605 0.66155559 4281426461
-0.26974565 0.071778864 0.66400003 4281689377
-0.32115304 0.075245902 0.66000003 4283915341
-0.27161279 0.077133626 0.66133332 4281295646
-0.26974565 0.077271163 0.66400003 4281426975
-0.32104599 0.084205687 0.66300005 4285822061
-0.31803352 0.084604546 0.66000003 4285164132
-0.27081591 0.082741566 0.66114289 4281427231
-0.2690151 0.082408883 0.66385716 4281361696
-0.32136881 0.088212252 0.66366673 4285229667
-0.31867599 0.087902106 0.66133338 4285360482
-0.27169502 0.087872587 0.66111112 4283266364
-0.26882562 0.087427236 0.66366673 4283069247
-0.32153022 0.091394223 0.66400003 4285622626
-0.31829646 0.092708349 0.66216671 4285623138
-0.27591956 0.093963198 0.66000003 4284778577
-0.27280685 0.092672758 0.66191673 4282345260
-0.26974565 0.092178836 0.66400003 4284516702
-0.31830457 0.097132914 0.66300005 4285426016
-0.31491396 0.097862631 0.66000003 4285558116
-0.27573746 0.097156301 0.66050005 4283923280
-0.27337757 0.097300641 0.66266674 4282739007
-0.31659135 0.10178743 0.66220003 4285163363
-0.2765696 0.10302916 0.66062498 4283725646
-0.27359065 0.10200181 0.66300005 4282869824
-0.3170107 0.10649379 0.66275001 4282926910
-0.31491396 0.10878107 0.66000003 4281480746
-0.28059891 0.10878107 0.66000003 4281557291
-0.27732617 0.10746459 0.66150004 4281622824
-0.27445334 0.10708651 0.66400003 4281754152
-0.31803429 0.11281151 0.66260004 4280823075
-0.31491396 0.11112073 0.66000003 4281020451
-0.28159133 0.11276665 0.66050005 4280110612
-0.27815583 0.11256808 0.66316676 4280110099
-0.27445334 0.11022496 0.66400003 4280769818
-0.31879774 0.11783558 0.66266674 4283126605
-0.28142983 0.11762656 0.6615001 4279908372
-0.27934194 0.11798219 0.66350007 4280630815
-0.31525329 0.12434802 0.66400003 4284507750
-0.31195813 0.12397347 0.66200006 4283520077
-0.28130513 0.12234734 0.66166675 4285560426
-0.27916104 0.12120955 0.66400003 4286150773
-0.31127837 0.12736006 0.66333336 4283191373
-0.30734849 0.12759477 0.66049999 4282862407
-0.28212103 0.12744482 0.66175002 4286217336
-0.31054559 0.13062494 0.66400003 4283059536
-0.30749616 0.13267858 0.66250008 4282730312
-0.30399552 0.13295758 0.66000003 4283190093
-0.28660664 0.13361299 0.66066664 4286216570
-0.28258434 0.13235341 0.66283339 4286413691
-0.30757189 0.13732147 0.66300011 4283190606
-0.30352271 0.13777633 0.66066676 4283387213
-0.29151732 0.1384168 0.66000003 4286150771
-0.28767902 0.13804692 0.66142857 4286150775
-0.28323647 0.13681383 0.66357148 4286348156
-0.30650738 0.14312485 0.66375005 4283321420
-0.30244869 0.1423094 0.66100007 4283584335
-0.29879627 0.14335608 0.66000003 4285163365
-0.29151732 0.14231624 0.66000003 4286019187
-0.28812435 0.14256762 0.66116673 4286150774
-0.28255635 0.14236374 0.66313338 4286282875
-0.27853334 0.14349261 0.66400003 4286152060
-0.3058379 0.14631721 0.66400003 4282927430
-0.30217949 0.14763224 0.66285717 4283716689
-0.29750445 0.1468682 0.66042858 4285623660
-0.29285428 0.14744119 0.66000003 4286018419
-0.28790703 0.14714383 0.6606667 4286150262
-0.28240803 0.14753361 0.66241676 4286282363
-0.27837643 0.14788644 0.66400003 4286151037
-0.30140918 0.15214494 0.66375005 4284110164
-0.29765207 0.15201961 0.66150004 4285557867
-0.29359701 0.15219481 0.66000003 4285756274
-0.28753763 0.15208787 0.66023076 4286019187
-0.28244305 0.15224981 0.66250008 4286282873
-0.27876872 0.15220182 0.66400003 4286282875
-0.30113024 0.1573018 0.66400003 4284109652
-0.29753986 0.15743111 0.66125 4285360746
-0.29424691 0.15752405 0.66000003 4285690737
-0.28689814 0.15772143 0.66049999 4285888372
-0.28329688 0.15720715 0.66300005 4286282617
-0.30067673 0.16254894 0.66300005 4283517771
-0.29742768 0.16283967 0.66100001 4285359460
-0.28611976 0.1631587 0.6615001 4285953907
-0.28404611 0.16188751 0.66350007 4286216309
-0.30113024 0.16750181 0.66400003 4283386701
-0.29772726 0.16769624 0.66166669 4284899937
-0.29424691 0.16766259 0.66000003 4285821551
-0.28738621 0.16783713 0.66178572 4286217596
-0.28386873 0.16514796 0.66400003 4285756276
-0.29723671 0.17247318 0.66275007 4285954159
-0.29244521 0.1720392 0.6603334 4287137924
-0.2877025 0.17247303 0.662 4287664788
-0.29698396 0.17756796 0.66350007 4286545526
-0.29230282 0.17710762 0.66177785 4287597450
-0.28746462 0.17750107 0.66325003 4287334795
-0.29670325 0.18194906 0.66375005 4285753957
-0.29243815 0.18266499 0.66208345 4285754990
-0.28732115 0.18245585 0.66214293 4285098096
-0.28313449 0.18394902 0.66228575 4285100153
-0.29681593 0.18765225 0.66312504 4284837230
-0.29289681 0.1875205 0.66100001 4285100916
-0.28878772 0.18637986 0.66000003 4285429626
-0.28102168 0.18574946 0.66100001 4285429630
-0.27745488 0.18744367 0.66163641 4285561471
-0.27281147 0.18862228 0.66255563 4285495419
-0.27591956 0.19066925 0.66000003 4285166710
-0.26276517 -0.021057246 0.667 4288125593
-0.26111093 -0.017899051 0.66680008 4287202952
-0.25864315 -0.01579506 0.66775006 4289244592
-0.25702024 -0.013471166 0.66600001 4289244592
-0.25327659 -0.011641331 0.66712505 4288521381
-0.25277001 -0.0074988375 0.66683334 4287006857
-0.25600758 -0.001192051 0.66500002 4287335308
-0.25308368 -0.0029156336 0.66709095 4286808962
-0.25583902 0.0022703896 0.66619998 4288191390
-0.25360671 0.001735503 0.66814291 4287928731
-0.25642288 0.0074641388 0.66608334 4288651687
-0.25349051 0.0071513271 0.6684286 4288585893
-0.25633809 0.012782312 0.66637498 4288322979
-0.25400516 0.013010707 0.66800004 4288585893
-0.25610614 0.017929852 0.66642863 4288388770
-0.25400516 0.01774675 0.66800004 4288454565
-0.33706632 0.023004988 0.66783333 4288254342
-0.33326596 0.023185629 0.66550004 4286542704
-0.25605151 0.022200584 0.66628569 4288848552
-0.25352484 0.022812467 0.66839999 4288454307
-0.33744118 0.027010778 0.6684286 4288319621
-0.33324865 0.027541023 0.66625005 4287069813
-0.25620008 0.026329994 0.66550004 4288585382
-0.25292924 0.027187489 0.6672501 4288585381
-0.24945569 0.028028555 0.66850007 4288650404
-0.33712673 0.030948691 0.66899997 4288122240
-0.33298054 0.031883918 0.66650003 4287070327
-0.25264427 0.031883132 0.66650009 4288716966
-0.24878594 0.032290228 0.66840011 4288453793
-0.33212605 0.037898004 0.667 4286543984
-0.3298724 0.037311949 0.66500002 4286347887
-0.25671321 0.038423993 0.6652 4288388259
-0.25283468 0.037424754 0.66700011 4288322206
-0.24906042 0.036323722 0.66850001 4287993756
-0.33113515 0.042531103 0.66675007 4287003765
-0.26091838 0.04363168 0.66550004 4287927192
-0.25756374 0.042941675 0.66700006 4287861399
-0.25328469 0.042412337 0.66859996 4287466640
-0.26140741 0.047814261 0.66624999 4287202955
-0.25751579 0.047591455 0.66810006 4287400590
-0.25438538 0.046232123 0.66900003 4287926677
-0.26166511 0.051990122 0.66579998 4287071115
-0.25861076 0.052451037 0.66766673 4287202955
-0.26085302 0.056986179 0.66533333 4286611841
-0.25856695 0.057175979 0.66755563 4286941062
-0.26543713 0.064814799 0.66500002 4285430123
-0.26225424 0.062718712 0.66609997 4284112982
-0.25900313 0.061424002 0.66800004 4282270511
-0.26606268 0.068569288 0.66657144 4281948454
-0.26259968 0.067389093 0.6680001 4281947690
-0.27015191 0.07424435 0.66500002 4280506128
-0.26708815 0.072909735 0.66716677 4281622561
-0.26387167 0.071528845 0.66900003 4281818915
-0.26702103 0.07761988 0.66700006 4281163808
-0.26387167 0.077853024 0.66899997 4281426466
-0.26610079 0.082308076 0.66666669 4281163807
-0.26300257 0.082205877 0.66839999 4281164061
-0.32686898 0.088063359 0.66850007 4285821801
-0.32407263 0.087734617 0.66600001 4285756522
-0.26646847 0.087366402 0.66680002 4283332679
-0.26387167 0.087339304 0.66899997 4283462989
-0.32626125 0.091990672 0.66833335 4285229667
-0.32316458 0.09242148 0.66575003 4285360736
-0.27055815 0.094817407 0.66600001 4282937669
-0.26730874 0.092118353 0.66718191 4283002692
-0.32528913 0.095963858 0.66850007 4285427303
-0.32245016 0.098457575 0.66720003 4285821545
-0.27102429 0.098220803 0.6656 4284842338
-0.26834276 0.097365335 0.667889 4283395653
-0.32172784 0.10294495 0.66766673 4285558375
-0.31887126 0.10410459 0.66500002 4285163873
-0.27148053 0.10273897 0.66633338 4283658573
-0.26932108 0.10274103 0.66840005 4283658310
-0.32172784 0.10767706 0.66766667 4282137649
-0.31887126 0.10724778 0.66500002 4281940270
-0.2719641 0.10771448 0.66700006 4281689130
-0.26979196 0.10615293 0.66800004 4280504346
-0.32194215 0.11258087 0.66680002 4281020712
-0.27585912 0.11361951 0.66550004 4279910151
-0.27264914 0.1122021 0.66727281 4279846411
-0.32346714 0.11641435 0.66800004 4283915612
-0.27665603 0.11704953 0.66600001 4280302102
-0.27389607 0.11688843 0.66800004 4280564503
-0.27775025 0.12233636 0.66658336 4285691246
-0.27480197 0.12206223 0.66866666 4286414968
-0.3159425 0.12819047 0.66766667 4283915099
-0.3136057 0.12777564 0.66550004 4283848790
-0.28000185 0.12787047 0.66600001 4286348666
-0.27766269 0.12759151 0.667077 4286283131
-0.27493897 0.12686542 0.66899997 4286348410
-0.31289539 0.13310668 0.66700006 4283190863
-0.28000185 0.13337931 0.66600001 4286545020
-0.27758256 0.13263401 0.66700006 4286414205
-0.27355087 0.13265555 0.6687001 4286348412
-0.31297222 0.13762346 0.66750002 4283191631
-0.30944169 0.13867961 0.66500002 4283058763
-0.28057742 0.1372111 0.66549999 4286217340
-0.27726805 0.13752037 0.66700006 4286217596
-0.27357516 0.13758938 0.6684286 4286413947
-0.31320646 0.1424634 0.66800004 4283915352
-0.30928147 0.14271581 0.66550004 4283190091
-0.27692726 0.14199293 0.66579998 4286217339
-0.27373827 0.14246182 0.66800004 4286282876
-0.31156269 0.14692792 0.66820002 4283717456
-0.30811706 0.14795572 0.66666669 4283191625
-0.30472693 0.14968075 0.66500002 4282731339
-0.27583578 0.14781888 0.66571426 4286282878
-0.27366975 0.14716269 0.66783339 4286348670
-0.30719689 0.1521863 0.66737503 4282665288
-0.30315533 0.15360972 0.66500002 4283320906
-0.27691236 0.15308623 0.66614288 4286217082
-0.27405995 0.15170945 0.66840005 4286479741
-0.30664238 0.15725341 0.66780007 4283255628
-0.30345926 0.15769584 0.6656667 4283518285
-0.28078824 0.15856318 0.66600001 4285887858
-0.27775642 0.15721601 0.66733336 4286086264
-0.27493897 0.15532422 0.66900003 4286413945
-0.30579615 0.1628236 0.66733336 4283452745
-0.30315533 0.1622535 0.66500002 4283517770
-0.28180861 0.16263357 0.66655564 4286281846
-0.27915511 0.16164841 0.66899997 4286151031
-0.30625436 0.16780598 0.66833335 4283650902
-0.30361119 0.16721934 0.66600001 4283518543
-0.28282574 0.16749482 0.66710007 4286414465
-0.30655986 0.17113468 0.66900003 4283849311
-0.30268332 0.17250156 0.66642863 4283981663
-0.28357339 0.17219938 0.66700006 4287730836
-0.30249259 0.1774535 0.667 4283784025
-0.28371632 0.17750047 0.66700006 4287598224
-0.30249214 0.18244474 0.66699994 4282468422
-0.29844055 0.18346998 0.66500002 4284438608
-0.2817663 0.18222286 0.66645455 4284770412
-0.27839953 0.18356232 0.66820002 4285298041
-0.30731803 0.18818675 0.66850007 4283917673
-0.3024689 0.18753339 0.66660005 4284048489
-0.27686983 0.18569887 0.66680002 4285561472
-0.2726092 0.18669395 0.66716671 4285561472
-0.26108661 -0.022156863 0.67159998 4287730319
-0.25898936 -0.020683045 0.67275006 4287203463
-0.25736547 -0.01767285 0.67162502 4287862423
-0.2533927 -0.016044142 0.67266673 4289310129
-0.24991517 -0.015543937 0.67400002 4289112751
-0.25125799 -0.012823023 0.67050004 4288981934
-0.24712616 -0.012339532 0.67291665 4288981164
-0.24274729 -0.011561783 0.67400002 4288783785
-0.25001541 -0.007534646 0.67000002 4288519588
-0.24710564 -0.0077052251 0.67227268 4288256159
-0.24385102 -0.0071791932 0.67375004 4288715938
-0.25041127 -0.0023885698 0.67000002 4288520100
-0.24729759 -0.0027889763 0.67122227 4288650917
-0.24384296 -0.0027992646 0.67357147 4288650146
-0.25093147 0.0019671745 0.67033339 4288454819
-0.24730349 0.0021314865 0.67210001 4288586150
-0.24415831 0.0011802318 0.6735 4288716965
-0.25127831 0.0077782515 0.67055559 4288651687
-0.24708778 0.0075399117 0.67281252 4288454565
-0.25184786 0.013062119 0.67066669 4288322468
-0.24811657 0.013117272 0.67344445 4287993760
-0.25184762 0.017817594 0.67066669 4288256931
-0.24893336 0.017892869 0.67350006 4288388261
-0.25130635 0.022337658 0.67042863 4288388772
-0.24819756 0.022853509 0.67312503 4288257184
-0.34026968 0.028092038 0.67000002 4288582793
-0.25001541 0.025716925 0.67000002 4288386973
-0.24693793 0.027228968 0.6718182 4288453536
-0.24477288 0.029013073 0.67300004 4288255901
-0.33710283 0.033633966 0.67000002 4287990658
-0.24636033 0.032126024 0.67155564 4288125085
-0.24477288 0.030603571 0.67300004 4288321694
-0.33551943 0.038384192 0.67000002 4287793795
-0.25001541 0.039967597 0.67000002 4287401874
-0.24683744 0.037462313 0.67154545 4287204240
-0.24477288 0.035375066 0.67300004 4287204754
-0.3360202 0.04002725 0.671 4287859327
-0.25147924 0.043605547 0.6702857 4287334541
-0.24749307 0.042521968 0.67283338 4286940040
-0.25251472 0.048093773 0.67090911 4287334539
-0.24898139 0.047795244 0.67320001 4286808966
-0.25604826 0.053050946 0.67025006 4287202954
-0.25295851 0.05265582 0.67209095 4285689195
-0.24991517 0.052152671 0.67400002 4283912007
-0.25581083 0.057442579 0.67066669 4286086269
-0.25328609 0.057439294 0.67328578 4283652947
-0.25648442 0.062414974 0.67087501 4282732091
-0.25410661 0.062062278 0.67350006 4285234538
-0.26109925 0.067677245 0.67000002 4282014509
-0.25787327 0.067077465 0.67191672 4282475059
-0.25469378 0.06648843 0.67400002 4282410030
-0.26216573 0.073093846 0.67030007 4281622561
-0.25793311 0.071773477 0.67263633 4282149164
-0.26140079 0.077530265 0.6707778 4281557794
-0.2578935 0.077294938 0.67290902 4281887014
-0.26103452 0.083069615 0.671 4281361183
-0.25822461 0.082040779 0.67371434 4281756196
-0.26174641 0.087687425 0.67166668 4282017324
-0.25947234 0.08639919 0.67400002 4281755429
-0.33016849 0.093289427 0.67200005 4283913817
-0.32760242 0.09380348 0.67000002 4285163624
-0.26584947 0.09380348 0.67000002 4283068748
-0.26263633 0.092484288 0.67191666 4282477112
-0.33016849 0.095671624 0.67200005 4284243555
-0.32781714 0.097549424 0.67125005 4285230698
-0.26624534 0.097366154 0.67000002 4283264579
-0.26326421 0.097144127 0.67229998 4284382547
-0.32812029 0.10185485 0.6735 4284572764
-0.32491982 0.10266522 0.671 4285163869
-0.26656863 0.10240691 0.67072731 4282803509
-0.2631278 0.10220168 0.67316675 4282936122
-0.32694083 0.10729688 0.67320001 4282796093
-0.32491982 0.10742254 0.671 4282663993
-0.26706809 0.10764219 0.67123073 4281031198
-0.26353535 0.10675651 0.67380005 4281556767
-0.3274788 0.11251245 0.67300004 4283651930
-0.32443559 0.11122096 0.67000002 4281611824
-0.27059969 0.11359608 0.67000002 4279910672
-0.26730132 0.11268756 0.67166662 4279844368
-0.26425093 0.11188497 0.67400002 4280041489
-0.32699221 0.11631738 0.67200005 4284047460
-0.27178842 0.1178062 0.67014283 4282273333
-0.26746535 0.11775529 0.67253846 4283193926
-0.26425093 0.11507069 0.67400002 4280433946
-0.27231774 0.12236568 0.67033333 4286545787
-0.26773354 0.12280682 0.67275 4286677116
-0.26425093 0.12303501 0.67400002 4286019700
-0.32063967 0.12902246 0.67200005 4284178270
-0.31889367 0.12784675 0.67000002 4283849305
-0.27231774 0.12711827 0.67033339 4286545789
-0.26753572 0.12748171 0.67224997 4286742910
-0.2628572 0.12801269 0.67400002 4286282617
-0.32159394 0.13259217 0.67400002 4283849819
-0.31778502 0.13279448 0.671 4283915612
-0.27099556 0.13299282 0.67000002 4286611327
-0.2674343 0.132351 0.67153847 4286742913
-0.26252738 0.13252661 0.67366672 4286413949
-0.32159394 0.13816717 0.67400002 4284113248
-0.31794289 0.13761894 0.67133331 4283521366
-0.27123308 0.13845558 0.67000002 4286545532
-0.26743534 0.13735957 0.67199999 4286874241
-0.26353535 0.1370119 0.67380005 4286413693
-0.32180679 0.14280321 0.67333335 4284441699
-0.31796595 0.14267913 0.67114288 4284441694
-0.27139139 0.14288914 0.67000002 4286479743
-0.26794079 0.14216946 0.67272723 4286677120
-0.26425093 0.14055647 0.67400002 4286611324
-0.32227111 0.14687341 0.67375004 4284374876
-0.31739622 0.14804927 0.67185706 4284374876
-0.31414342 0.14763936 0.67000002 4283387979
-0.2713396 0.14802431 0.67071438 4286480000
-0.26868603 0.14674075 0.67314285 4286611586
-0.32000107 0.15011364 0.67400002 4283848278
-0.31735849 0.15293577 0.67380005 4283126355
-0.31288785 0.15294172 0.67142862 4281151279
-0.2716009 0.15293506 0.6717 4286414206
-0.2690295 0.1517065 0.67400002 4286414206
-0.31522247 0.15728152 0.67400002 4282796618
-0.31182852 0.15757017 0.67183334 4282796105
-0.3086015 0.15872322 0.67000002 4283847764
-0.2755554 0.15804996 0.67050004 4286217335
-0.27308711 0.15741232 0.67266667 4286479994
-0.31211835 0.162248 0.67279994 4282861902
-0.3086015 0.16189003 0.67000002 4283848018
-0.2768802 0.1626433 0.67180002 4286151032
-0.27499235 0.16102442 0.67300004 4286216826
-0.31188244 0.16755299 0.67366672 4282730317
-0.30875504 0.16672395 0.67033339 4283782744
-0.28041682 0.16790697 0.67000002 4286676866
-0.27740452 0.16712917 0.67254543 4286545534
-0.308613 0.17269912 0.67140007 4283651931
-0.28096151 0.17301731 0.67016673 4288191130
-0.2777707 0.17210673 0.67279994 4288190106
-0.30864638 0.17768586 0.67157143 4282666320
-0.28103119 0.17781214 0.67033339 4287730067
-0.27751473 0.17732665 0.6727857 4287532945
-0.31612769 0.18400311 0.67366672 4283127129
-0.31239367 0.18298838 0.67262501 4282798164
-0.30796334 0.18256432 0.67033339 4282338384
-0.28010014 0.18089093 0.67000002 4284244063
-0.27677703 0.18177713 0.67133331 4285165173
-0.27292672 0.18287648 0.67254543 4285428861
-0.26981935 0.18460718 0.67200005 4285561218
-0.31192398 0.18731691 0.67033339 4283719268
-0.3086015 0.18564115 0.67000002 4283127902
-0.27218309 0.18564115 0.67000002 4285429888
-0.26743627 0.18619293 0.67199999 4285495167
-0.21094616 0.19292831 0.67333335 4284772214
-0.26024231 -0.023578001 0.67600006 4287992977
-0.25748137 -0.022018585 0.67714292 4287335304
-0.25346994 -0.021096591 0.67840004 4286743170
-0.2469551 -0.020473281 0.67900002 4286151033
-0.24224226 -0.021129834 0.67800003 4287072136
-0.23729798 -0.021084055 0.67800003 4288190877
-0.23377289 -0.020443128 0.67800003 4288651686
-0.25507164 -0.018757448 0.67500001 4286150520
-0.25215775 -0.018162875 0.6766001 4287729555
-0.24782713 -0.017214913 0.67699999 4289045930
-0.24281481 -0.017382352 0.6773001 4289375409
-0.23717652 -0.017066173 0.67690915 4289375666
-0.23241338 -0.017041387 0.67812502 4289309616
-0.24167176 -0.01301464 0.67500001 4289113006
-0.23779736 -0.012391072 0.67577785 4289178542
-0.23271215 -0.012417607 0.67724997 4289769652
-0.22896595 -0.012431557 0.67800003 4284439392
-0.24169053 -0.0075964984 0.67550009 4288520356
-0.23730932 -0.0076094209 0.67666674 4288981420
-0.23213227 -0.0076230997 0.67788893 4290098876
-0.22832504 -0.0073041497 0.67800003 4286741892
-0.24156669 -0.0028076945 0.67560005 4288189079
-0.23742621 -0.002812922 0.67700005 4288716193
-0.23228472 -0.0028182666 0.67833334 4289900985
-0.22833286 -0.0028189588 0.6785 4288123544
-0.24172105 0.0023396669 0.67633337 4288321182
-0.23733154 0.0018298093 0.67809999 4288453536
-0.22930366 0.00038753106 0.67900002 4290492604
-0.24247646 0.0073919888 0.6761539 4287664537
-0.23781221 0.0067969845 0.67809999 4289045934
-0.24562152 0.013154325 0.67533332 4287665051
-0.24212387 0.012944347 0.67723083 4288191395
-0.2380414 0.012418631 0.67874998 4288915118
-0.24647975 0.017946003 0.67550009 4287992988
-0.24240495 0.017999139 0.67750001 4288387486
-0.23893172 0.01643431 0.67900002 4289308075
-0.24608096 0.022335825 0.67550004 4288190365
-0.2424636 0.022807948 0.67766666 4288321438
-0.24228372 0.027591959 0.67716676 4288453280
-0.24213475 0.03237306 0.67675 4287927706
-0.24237709 0.037029404 0.67681819 4287598743
-0.24568215 0.042690895 0.67550004 4286874248
-0.24318576 0.042013474 0.67744446 4287861142
-0.24695216 0.047846798 0.67585719 4286677893
-0.24434769 0.046534095 0.67800003 4286611581
-0.25028595 0.054622885 0.67500001 4282400558
-0.24747556 0.052360788 0.67763638 4284440146
-0.25122067 0.058201373 0.67580003 4281877035
-0.24948697 0.057690527 0.67825007 4282139184
-0.25182447 0.062784016 0.67700005 4281945905
-0.25507164 0.068979904 0.67500001 4282279725
-0.25250158 0.067551062 0.67666674 4282476594
-0.25507164 0.072170354 0.67500001 4282215211
-0.252543 0.072360702 0.67677784 4282478897
-0.25519761 0.076994829 0.67533332 4282018854
-0.25270858 0.07720992 0.67722225 4282413616
-0.25632408 0.082599871 0.67550009 4281887782
-0.25345749 0.081876442 0.67799997 4282610995
-0.25776783 0.08778473 0.67650008 4281953834
-0.25497851 0.08543545 0.67900002 4282808631
-0.26024231 0.094643511 0.67600006 4282214964
-0.25800619 0.092601985 0.67700005 4282019377
-0.26072639 0.098099843 0.67560005 4284713055
-0.25860837 0.098128937 0.67799997 4283135306
-0.33521238 0.10308691 0.67900002 4283850336
-0.33219624 0.10273267 0.67666674 4284047456
-0.26084742 0.10255554 0.67549998 4282412085
-0.25892109 0.10267488 0.67840004 4281886257
-0.33207154 0.10766298 0.67750007 4284310882
-0.2613824 0.10765278 0.67600006 4280702482
-0.25953746 0.1077958 0.67833334 4280900890
-0.33174482 0.11235493 0.67683339 4284704876
-0.26205298 0.11230972 0.67655557 4279844112
-0.25979254 0.11271498 0.67900008 4280040722
-0.33107027 0.11594389 0.67600006 4284836465
-0.26266518 0.11726492 0.6766364 4282931526
-0.25979254 0.11752901 0.67900008 4284509538
-0.26214382 0.12244395 0.6761539 4286480255
-0.25900936 0.12256344 0.67800003 4286677634
-0.26084742 0.12650163 0.67550004 4286545791
-0.25819311 0.1278318 0.67691666 4286743170
-0.32670715 0.13257791 0.67800003 4284244577
-0.3239868 0.13308398 0.67650002 4283915612
-0.26024231 0.13378441 0.67600006 4286611585
-0.25793466 0.13264002 0.67750007 4286874498
-0.327189 0.1399945 0.67900002 4284902254
-0.32362714 0.13732862 0.67575002 4284178784
-0.26138207 0.13800728 0.676 4286677123
-0.25920007 0.13788734 0.67850006 4286808195
-0.32670715 0.14459528 0.67800003 4284179301
-0.26563662 0.1440621 0.67550004 4286874243
-0.2626608 0.14284603 0.67730004 4286611070
-0.32654652 0.14772803 0.67766666 4284441185
-0.3236663 0.14874114 0.67500001 4284308829
-0.26628754 0.14765476 0.67628574 4286742914
-0.26380882 0.14761023 0.67860001 4286413434
-0.32614633 0.15271997 0.67850006 4284309599
-0.32220283 0.15211995 0.6758334 4283849049
-0.26698112 0.15235753 0.67688894 4286611585
-0.26460657 0.15122725 0.67900002 4286282613
-0.32190019 0.15741473 0.67799997 4283518799
-0.31855425 0.15694945 0.67600006 4282597956
-0.27202225 0.15922737 0.67550004 4286480250
-0.2684235 0.15709151 0.67730004 4286545790
-0.32077029 0.16085532 0.67900002 4282927177
-0.31726649 0.16166148 0.67700005 4282532680
-0.31409493 0.16469339 0.67500001 4282532937
-0.27238935 0.16264069 0.6764167 4286216824
-0.2692222 0.16153921 0.67850006 4286348152
-0.31655991 0.16756022 0.67800003 4282335816
-0.31456029 0.16733377 0.67600006 4282598730
-0.27580956 0.16947907 0.67500001 4287269001
-0.27282527 0.16770388 0.67750001 4286875016
-0.31549093 0.17263579 0.67800003 4282270280
-0.31280836 0.17284085 0.67566675 4282664779
-0.27580956 0.17266952 0.67500001 4288190363
-0.27342531 0.17264703 0.67700005 4288190366
-0.31603879 0.17755039 0.6778 4282598986
-0.31313062 0.17798546 0.67550004 4282599498
-0.27259332 0.17775416 0.677077 4286677123
-0.3222245 0.1827779 0.67700005 4283914842
-0.31795689 0.18193884 0.67642868 4283323732
-0.31409493 0.18064563 0.67500001 4282666576
-0.27152461 0.18137898 0.67625004 4285295988
-0.26795739 0.18334337 0.67711109 4285494907
-0.26460657 0.18492548 0.67900002 4285429373
-0.26563662 0.18556866 0.67550004 4285758339
-0.21313807 0.19223011 0.67760003 4284969080
-0.21582861 0.19717883 0.67700005 4284903801
-0.21359579 0.19500265 0.67500001 4284837495
-0.25567234 -0.025436282 0.68300003 4287927694
-0.25615752 -0.023717515 0.68000001 4287203716
-0.25191283 -0.022675218 0.68083334 4286611583
-0.24775688 -0.022589561 0.68057144 4286611584
-0.2433012 -0.023717515 0.68000001 4286282620
-0.23289323 0.0019957314 0.68011111 4289966776
-0.22841434 0.0019969086 0.68033338 4288189076
-0.23606952 0.008423307 0.68000001 4289112497
-0.23270412 0.0069759781 0.6812728 4289769655
-0.22910737 0.0064345533 0.68200004 4288320411
-0.23606952 0.01244091 0.68000001 4289178033
-0.23293935 0.012319394 0.68213338 4289703862
-0.22920802 0.010890223 0.68350005 4288650400
-0.23708041 0.018403612 0.68060005 4289440432
-0.23394981 0.01750586 0.6832 4289572019
-0.23724799 0.022923728 0.68108338 4289440691
-0.23747922 0.027779503 0.68175006 4289309362
-0.23756619 0.032624599 0.68199998 4289571761
-0.24089064 0.038957089 0.68000001 4288782245
-0.23791319 0.037333354 0.68236369 4289244079
-0.24089064 0.042171169 0.68000001 4286216828
-0.23903482 0.042100728 0.68257141 4285888886
-0.24181192 0.047271185 0.68170005 4282336306
-0.24571176 0.053420458 0.68000001 4282796086
-0.24320827 0.051966336 0.68200004 4282402100
-0.24708915 0.057658721 0.6807 4286284155
-0.24428426 0.056057103 0.68274999 4287139465
-0.2505329 0.064669743 0.68000001 4282670645
-0.24775764 0.062450636 0.68210006 4283787857
-0.2505329 0.067883827 0.68000001 4282148141
-0.24885134 0.068082698 0.6820001 4281951018
-0.2505329 0.072704948 0.68000001 4282150187
-0.24816507 0.072954439 0.68233341 4281755941
-0.2505329 0.07752607 0.68000001 4282216237
-0.24816507 0.077792093 0.68233347 4281953577
-0.25129119 0.083046712 0.6813333 4282545460
-0.24912488 0.081873745 0.68275005 4282479149
-0.25535402 0.087971836 0.68000001 4282414387
-0.25287887 0.087425224 0.68199998 4282480181
-0.25535402 0.09198945 0.68000001 4282347058
-0.2532095 0.092379995 0.68288898 4283530310
-0.2563453 0.096882544 0.68050003 4284843352
-0.2540586 0.097238459 0.68300003 4284973145
-0.33650959 0.10484577 0.68000001 4284705645
-0.25666302 0.10269161 0.6811111 4282477623
-0.25486645 0.101273 0.68300003 4282608177
-0.34041539 0.10853659 0.68300003 4284772206
-0.336923 0.10819268 0.6808334 4284574570
-0.25724047 0.10750729 0.68160003 4280966174
-0.34041539 0.11095779 0.68300003 4284968561
-0.3373507 0.11304732 0.68100005 4284902255
-0.25755286 0.11288992 0.68200004 4280631580
-0.33700567 0.11626579 0.68099999 4285033332
-0.25758854 0.11799058 0.68166667 4285758580
-0.25696728 0.12260439 0.68144453 4286875268
-0.25486645 0.1246779 0.68300003 4287335561
-0.25584966 0.12698883 0.68025005 4287071878
-0.25407106 0.12815408 0.68260014 4287137672
-0.33024639 0.13416597 0.68200004 4284705129
-0.25547919 0.13223106 0.68033338 4287203462
-0.25414521 0.1323864 0.68280011 4287203461
-0.33073062 0.13920508 0.68300003 4284968047
-0.32767087 0.1369866 0.68000001 4284309857
-0.25662607 0.13764194 0.68125004 4287005830
-0.25486645 0.13678388 0.68300003 4287006085
-0.33024639 0.14061303 0.68200004 4285033840
-0.26017514 0.14261124 0.68000001 4286808449
-0.25771475 0.14222533 0.6820001 4286808707
-0.32952005 0.14754018 0.68050003 4284442215
-0.2614378 0.14754097 0.68049997 4286808191
-0.25898665 0.14691027 0.68280011 4286808449
-0.33210263 0.15281324 0.6825 4284572775
-0.32871532 0.15317073 0.68050003 4284572771
-0.26258981 0.15227295 0.68172735 4286611322
-0.33097273 0.15626836 0.68350005 4284573282
-0.32770944 0.15747973 0.68175006 4284572768
-0.32469535 0.15879893 0.68050003 4284046171
-0.26595086 0.15838575 0.68080008 4286150518
-0.26390466 0.1566377 0.68300009 4286479737
-0.32669529 0.16099584 0.68300003 4284244064
-0.3224017 0.16287929 0.68075007 4283059535
-0.31963566 0.1643063 0.68000001 4282269511
-0.26761711 0.1629917 0.68122226 4286348152
-0.26474491 0.16111431 0.68350005 4286084723
-0.32214007 0.16738901 0.68275005 4282467401
-0.31883213 0.16752037 0.68000001 4282269765
-0.26812384 0.1675681 0.68183345 4287203979
-0.32104582 0.17310184 0.68300003 4282270795
-0.31834042 0.17251126 0.68066669 4282204232
-0.27112186 0.17280722 0.68025005 4288125855
-0.26854643 0.1723672 0.68222225 4287862683
-0.3221491 0.17816284 0.68260002 4282928721
-0.3185643 0.17716263 0.68000001 4282467401
-0.27081931 0.17568468 0.68050003 4288190363
-0.26841551 0.17801213 0.68188894 4285230189
-0.32774979 0.18144549 0.68099999 4284310370
-0.32316706 0.18055356 0.68066669 4283587158
-0.26750883 0.18136962 0.68114287 4284968817
-0.26294595 0.18395174 0.68233341 4285100919
-0.26166797 0.18580386 0.68075001 4285363834
-0.25726488 0.18731877 0.68187505 4285298042
-0.21661557 0.19299194 0.68200004 4285035129
-0.21871325 0.19753775 0.68100005 4285035387
-0.2539939 -0.025510767 0.68500006 4287466633
-0.23132992 0.014960675 0.68500006 4290032312
-0.22868733 0.013075647 0.68516666 4287662477
-0.23165561 0.018742831 0.68516666 4289835192
-0.22913933 0.017906498 0.68620002 4287860885
-0.23239164 0.0230806 0.68575001 4289835705
-0.22898014 0.023145502 0.68766665 4286281849
-0.23264514 0.02797305 0.68650001 4289769912
-0.2294241 0.02807452 0.68899995 4288519843
-0.23275769 0.032856006 0.68683338 4289835190
-0.2294241 0.032959454 0.68899995 4290361275
-0.23618649 0.039243542 0.68500006 4289836474
-0.23304008 0.037771549 0.68766671 4289638582
-0.23632716 0.042745925 0.68599999 4288192156
-0.23326404 0.042066064 0.68879998 4289441461
-0.23765558 0.047470871 0.68691677 4281810469
-0.24067514 0.052580077 0.68580008 4282863421
-0.23798867 0.052007861 0.68787503 4281482273
-0.24185784 0.057330169 0.68640006 4286878342
-0.23878689 0.056977034 0.68900001 4280892447
-0.24589963 0.062716976 0.68500006 4282802496
-0.24273221 0.062134277 0.68750006 4283001148
-0.24682872 0.066796996 0.68533331 4281819434
-0.24372308 0.067056514 0.68800002 4281426208
-0.24629518 0.071964905 0.68520004 4281361442
-0.24360497 0.071899503 0.68766677 4281295905
-0.24601929 0.078134917 0.68533343 4281756198
-0.24420007 0.076972686 0.68762505 4281295905
-0.24703622 0.083154783 0.68666673 4282413614
-0.2440789 0.080994621 0.68900001 4281492516
-0.2507562 0.087809265 0.68500012 4282413875
-0.24784398 0.087691694 0.68754542 4282282286
-0.2507562 0.092665851 0.68500012 4283595852
-0.24852061 0.093041867 0.68777788 4284186448
-0.25146013 0.097921714 0.68637508 4283922512
-0.24874608 0.097356558 0.68840009 4283856205
-0.25223497 0.10265359 0.68683338 4282214445
-0.25561279 0.108045 0.68500006 4280440344
-0.25293171 0.10744915 0.68740004 4280768282
-0.25561279 0.11209214 0.68500012 4280632860
-0.25339663 0.11254617 0.68777782 4280500512
-0.25561279 0.1169487 0.68500012 4285034347
-0.253151 0.11730887 0.68711114 4286547330
-0.25561279 0.12099586 0.68500006 4286941316
-0.25314996 0.12218041 0.68711114 4287466635
-0.25223714 0.12725899 0.68663639 4287401100
-0.25180978 0.13271256 0.68700004 4287466892
-0.3316991 0.13799386 0.68500006 4284968047
-0.25228879 0.13739847 0.68718189 4287466636
-0.25561279 0.14285043 0.68500012 4287006087
-0.25335568 0.14232282 0.68766677 4287203722
-0.33331797 0.14689758 0.68500006 4284639855
-0.25674814 0.14830215 0.68587512 4286874242
-0.25353161 0.14675808 0.68814284 4286940549
-0.33542576 0.15440752 0.68600005 4284703852
-0.3349368 0.15094472 0.68500006 4284770408
-0.26046935 0.153373 0.68500006 4286677372
-0.25768006 0.15279566 0.68750012 4286677118
-0.25384876 0.15019783 0.68900001 4286743170
-0.33624068 0.15803455 0.68766671 4284507490
-0.33327821 0.1579984 0.68575001 4284441697
-0.2617532 0.1581139 0.68625009 4286479736
-0.25885737 0.1565399 0.68825001 4286480249
-0.33526433 0.161596 0.68900001 4284638821
-0.33144987 0.16234699 0.68700004 4284441442
-0.32824144 0.16351549 0.68566674 4284244578
-0.26532593 0.16389559 0.68500006 4285887347
-0.26210162 0.1627906 0.68716675 4286479482
-0.3303794 0.16648094 0.68900001 4284112738
-0.32698619 0.16762128 0.68700004 4283653214
-0.32360479 0.16875216 0.68500006 4282796623
-0.26532593 0.16713329 0.68500012 4286743428
-0.26232561 0.16780429 0.6877501 4287402129
-0.32648972 0.17266019 0.68766665 4283126102
-0.32376227 0.17207436 0.68533343 4282731602
-0.26605093 0.17236432 0.68520004 4287466641
-0.2624211 0.17274348 0.68800014 4286809732
-0.25873372 0.17462251 0.68900001 4285032552
-0.33282185 0.17950743 0.68900001 4284310112
-0.32733631 0.17794661 0.68716669 4283652698
-0.32360479 0.17603701 0.68500006 4282665808
-0.26626447 0.1769321 0.68533331 4284965989
-0.26250392 0.17737818 0.68763644 4284637793
-0.25904632 0.17822108 0.68874997 4284572005
-0.32765195 0.18008417 0.68500006 4283850585
-0.26532593 0.1808936 0.68500006 4284574315
-0.26246977 0.18196723 0.68599999 4284772211
-0.25814018 0.18289207 0.68781829 4284969335
-0.25638336 0.18591225 0.68620002 4285165687
-0.25291249 0.18812601 0.68744445 4285231737
-0.25112227 0.19088382 0.68600005 4285101176
-0.24765825 0.19158055 0.68688893 4285101176
-0.24242429 0.19268057 0.68662512 4285166711
-0.23875767 0.1938076 0.68774998 4285166712
-0.22150417 0.19333844 0.68800002 4285166458
-0.21882442 0.19212878 0.68640006 4285034871
-0.23671843 0.19639891 0.68733335 4285100662
-0.22334661 0.19711401 0.68700004 4285035387
-0.22812644 0.03382263 0.69000006 4285293928
-0.22910708 0.037926778 0.69050002 4287992983
-0.23161013 0.0436492 0.69066668 4289639096
-0.22903003 0.042476695 0.69150007 4286480259
-0.23270632 0.047787413 0.69150001 4285427556
-0.22911827 0.047892254 0.69300002 4284702816
-0.23577794 0.053008664 0.69140005 4281219871
-0.23228148 0.052779622 0.69266659 4282009899
-0.22944887 0.052880164 0.69400001 4282536767
-0.23667315 0.057817873 0.69174999 4280892444
-0.23269163 0.05779155 0.69388896 4282077229
-0.23772196 0.062525511 0.69183332 4280894492
-0.23293418 0.062515914 0.69400001 4281751335
-0.24117182 0.067251444 0.69000006 4281426462
-0.23789434 0.067478478 0.69233328 4281159962
-0.23371322 0.067641303 0.69400001 4281554722
-0.24079728 0.072554193 0.69080001 4281098782
-0.23756377 0.072272919 0.69279999 4281294879
-0.24140312 0.077379175 0.69125003 4281229855
-0.23849568 0.077109858 0.69360006 4281164319
-0.24216039 0.08231689 0.69190001 4281492515
-0.23928964 0.08158239 0.69400001 4281229599
-0.24606384 0.088450208 0.69000006 4282085162
-0.24286097 0.087134093 0.69250005 4281887526
-0.24606384 0.092526898 0.69000006 4284186701
-0.2428901 0.09205512 0.69258332 4284120141
-0.24616376 0.097751416 0.69120008 4283066430
-0.24288122 0.096707106 0.69333339 4284184916
-0.24765141 0.10222336 0.69216663 4282083115
-0.24421002 0.10044385 0.69400001 4281886253
-0.25041103 0.10853229 0.69120008 4279911954
-0.24813086 0.10692725 0.69350004 4280569363
-0.25062308 0.1131289 0.69133335 4281288495
-0.24813086 0.11184411 0.69349998 4280630810
-0.25050184 0.11797308 0.69100004 4287731092
-0.24822237 0.11721684 0.69342858 4287598993
-0.25050187 0.12287217 0.69099998 4287795858
-0.24822059 0.12213108 0.69375002 4287992982
-0.25035053 0.12674423 0.69133335 4287861651
-0.24840538 0.12795803 0.69312513 4287993751
-0.24826176 0.13312241 0.6925 4287730582
-0.24777068 0.13786815 0.69250005 4287730068
-0.25056246 0.14250338 0.6911667 4287072906
-0.24801122 0.14291573 0.69316673 4287599250
-0.25100753 0.14769244 0.6914286 4286941321
-0.24813086 0.14790092 0.69350004 4287599250
-0.25230822 0.15265633 0.69209093 4286809220
-0.2491304 0.15210786 0.69400001 4287336338
-0.2570228 0.15793152 0.69128573 4286414203
-0.253259 0.15733297 0.69333333 4286742658
-0.33814034 0.16354781 0.69266671 4284309857
-0.33412024 0.16346122 0.69000006 4284440415
-0.25749731 0.16235884 0.69225001 4286677121
-0.25364077 0.16235864 0.69400001 4286677636
-0.33628106 0.16643615 0.69333333 4284506980
-0.33322939 0.16845874 0.69266671 4284244322
-0.32922825 0.16998392 0.69000006 4283719004
-0.25764924 0.16749385 0.69215387 4287072391
-0.25405079 0.16768907 0.69400001 4286545792
-0.33213758 0.17227863 0.69266671 4284113248
-0.32938731 0.17332898 0.69033337 4283718749
-0.25724876 0.17230506 0.69218183 4285887858
-0.25405079 0.17260945 0.69400001 4285822065
-0.33663511 0.17904088 0.69350004 4284310884
-0.33287695 0.17714417 0.69250005 4284178784
-0.32922825 0.17650662 0.69000006 4283981922
-0.25692257 0.17702875 0.69124997 4284638053
-0.25293717 0.17765203 0.69319999 4284506983
-0.24858369 0.17862326 0.69400001 4284968306
-0.33729851 0.18015876 0.69150007 4284245347
-0.25609508 0.18157311 0.69066668 4284903285
-0.25270709 0.18237139 0.69192857 4284903029
-0.24725199 0.18227366 0.69333339 4285231993
-0.24289791 0.18343429 0.69400001 4285232248
-0.23928964 0.18409035 0.69400001 4285166455
-0.25110683 0.18633229 0.6911667 4285100408
-0.2472124 0.18756367 0.69146156 4285100921
-0.24247661 0.18737276 0.69279993 4285035128
-0.23785454 0.18757561 0.69400001 4284969333
-0.23436926 0.18901072 0.69400001 4284706418
-0.24208644 0.19083802 0.69128573 4285101178
-0.23706619 0.19214492 0.69229996 4284838261
-0.23327583 0.19283767 0.69400001 4284838261
-0.22762746 0.19213626 0.69344449 4285165944
-0.22328538 0.19172956 0.69100004 4285166200
-0.23532926 0.19582534 0.69200003 4285100404
-0.2324118 0.19760869 0.69230777 4284969076
-0.22794609 0.1969858 0.69157135 4285035129
-0.23090661 0.20125797 0.69100004 4285034615
-0.23011014 0.059611976 0.69600004 4283328322
-0.22977953 0.057062589 0.69500005 4284116817
-0.23054743 0.063419051 0.69566673 4283528772
-0.22977953 0.062811308 0.69500005 4283725641
-0.23109443 0.067780547 0.69542867 4282214700
-0.22879353 0.069580927 0.69700003 4280500246
-0.2350447 0.074415661 0.69600004 4281295646
-0.23244244 0.072650649 0.69627279 4281754659
-0.22912179 0.072981492 0.69800001 4282146092
-0.23621824 0.077940345 0.6960001 4281098268
-0.23241991 0.077929705 0.69800001 4281295647
-0.22945006 0.07721433 0.69900006 4282343983
-0.23732245 0.082911745 0.69690001 4281492257
-0.23374513 0.082665749 0.69900006 4281558050
-0.23799217 0.087752938 0.69741672 4281820197
-0.23799215 0.092697553 0.69741672 4283987533
-0.23440589 0.092907801 0.69900006 4282935867
-0.24097407 0.099159651 0.69650006 4281885489
-0.23808916 0.097352661 0.69770002 4282871352
-0.24253632 0.10266228 0.69690913 4281689381
-0.23881108 0.10171818 0.69900006 4281623593
-0.2457941 0.10733803 0.69616675 4280108557
-0.24235542 0.10763797 0.69811112 4280042257
-0.24591218 0.11232793 0.69650006 4280696349
-0.24298778 0.11242603 0.69857138 4281222694
-0.24591219 0.11726604 0.69650006 4286876039
-0.24269733 0.11780897 0.69850004 4285692019
-0.24628946 0.12221736 0.69657147 4288387995
-0.24303773 0.122357 0.69871432 4288125336
-0.24628945 0.12691997 0.69657147 4288059030
-0.24365678 0.127929 0.69900006 4287203976
-0.24573506 0.13198555 0.6960001 4287993756
-0.24331681 0.13245964 0.69849998 4287138447
-0.24526569 0.13711682 0.69700003 4287466898
-0.24354495 0.13734166 0.69814289 4286743433
-0.24573505 0.14267592 0.6960001 4287532944
-0.24331681 0.1423642 0.6985001 4287006344
-0.24564119 0.1471599 0.69620007 4287927702
-0.24358687 0.14704986 0.69880003 4286217595
-0.24693564 0.15239318 0.69655561 4287598996
-0.24431755 0.15155181 0.69900006 4288058518
-0.25113189 0.15889701 0.69500005 4287005575
-0.24782212 0.15735133 0.69725007 4287401615
-0.34245151 0.16347229 0.69700003 4284770407
-0.25164571 0.16343375 0.69566679 4286875014
-0.24804561 0.16182232 0.69787502 4287335310
-0.34216988 0.16716552 0.69866675 4284375910
-0.33915707 0.16841395 0.69700003 4284573029
-0.25149164 0.16762327 0.6960001 4286743170
-0.24783869 0.16731001 0.6982857 4287006600
-0.3401303 0.17054917 0.69900006 4284507750
-0.3367551 0.17264603 0.69680005 4284244578
-0.33489892 0.17121568 0.69500005 4284178785
-0.25149167 0.17255782 0.6960001 4286019701
-0.24742357 0.17206371 0.69844449 4286283132
-0.34218383 0.17850003 0.69780004 4284113506
-0.33828363 0.17730193 0.69633341 4284310371
-0.2506696 0.17557299 0.69600004 4284243805
-0.24711388 0.17687827 0.69672734 4284507495
-0.24283774 0.17844817 0.69760001 4285034356
-0.24207187 0.18150334 0.69540006 4285166456
-0.23738338 0.18264325 0.69683337 4284968823
-0.23374139 0.18356636 0.69825006 4284837235
-0.23634948 0.18599811 0.69500005 4285100662
-0.23218396 0.18731712 0.69615388 4284968821
-0.23196952 0.19147308 0.69499999 4284838005
-0.2297783 0.079806261 0.70000005 4283660357
-0.23129871 0.08285477 0.70060003 4282412597
-0.23245367 0.08823771 0.7012729 4282543159
-0.23222515 0.09322609 0.70140004 4284119374
-0.23573604 0.099729128 0.70050001 4281820195
-0.23268954 0.097854778 0.70130002 4282805302
-0.23723033 0.10377198 0.70125008 4280636953
-0.23209165 0.10217977 0.70271432 4281557029
-0.2379704 0.10801673 0.70154548 4280303893
-0.23368676 0.1065198 0.70380008 4280567065
-0.24057131 0.11332003 0.70060003 4281024546
-0.23729502 0.11276841 0.7026667 4281024802
-0.23350371 0.11100272 0.70375007 4281156393
-0.24048387 0.11686391 0.70066667 4283587662
-0.23740086 0.11785881 0.70200008 4285561202
-0.23441882 0.11686502 0.70400006 4285165674
-0.24063981 0.12328993 0.70080006 4288125080
-0.23728082 0.1224484 0.7026251 4287928472
-0.23441882 0.1218563 0.70400006 4288125851
-0.24122891 0.1277277 0.70100009 4286283130
-0.23778549 0.12708923 0.70271438 4287071362
-0.24104612 0.13302852 0.70150012 4286481282
-0.23862882 0.13171323 0.70333338 4286678143
-0.24104613 0.13800208 0.70150012 4285953912
-0.23941012 0.13683015 0.70400006 4286414969
-0.24104613 0.14297564 0.7015 4285888371
-0.23941012 0.14182143 0.70400006 4286216822
-0.24132708 0.14814033 0.70128578 4285889395
-0.23941012 0.14681272 0.70400006 4283717200
-0.24240714 0.15291038 0.70144451 4286217338
-0.23941012 0.1509721 0.70400006 4285626480
-0.24501657 0.1586121 0.70100003 4287467922
-0.24284019 0.15708302 0.70250005 4286216567
-0.34706083 0.16487952 0.70300001 4284310110
-0.24567831 0.16308513 0.70100003 4286808708
-0.24328022 0.16242534 0.70316666 4285953392
-0.34755453 0.16760972 0.70400006 4284310117
-0.34466246 0.16867295 0.70150006 4284310117
-0.2456084 0.16734461 0.70080006 4286546816
-0.24300532 0.16765858 0.70271432 4286282614
-0.34564513 0.17247899 0.70350003 4284507749
-0.34209841 0.17302513 0.70100009 4284376163
-0.24501657 0.17186546 0.70100003 4286480513
-0.24318211 0.17314062 0.70185715 4284967529
-0.3472524 0.1780235 0.70242864 4284310631
-0.34331235 0.17711081 0.70100003 4284441957
-0.24126399 0.17636538 0.70133334 4284770922
-0.23850858 0.17851055 0.70216674 4285100407
-0.23596334 0.18068075 0.70200008 4285034871
-0.22975345 0.10370203 0.70500004 4281882667
-0.23183611 0.10745081 0.70500004 4281355042
-0.22975345 0.10703427 0.7050001 4282077747
-0.23154178 0.11250878 0.70537496 4282207544
-0.22873437 0.11402132 0.70700002 4282929480
-0.23194218 0.11705474 0.70514286 4285429615
-0.2287956 0.11753082 0.70633334 4285232496
-0.23152821 0.12208709 0.70533335 4287994009
-0.22784503 0.12234712 0.70683336 4286414723
-0.23641795 0.12786081 0.70500004 4287927184
-0.23260747 0.12722334 0.7060833 4288059545
-0.22827445 0.12759912 0.70816666 4286743685
-0.2364178 0.13235174 0.705625 4287335048
-0.23257127 0.13235569 0.70787507 4287861909
-0.23686324 0.13728417 0.7063334 4286743165
-0.23418777 0.13767236 0.70833331 4287729808
-0.23697448 0.14235862 0.70666671 4286086007
-0.23440818 0.14282867 0.70900005 4286941580
-0.23690049 0.14732273 0.70644444 4284638303
-0.23440818 0.1478554 0.70900005 4287663758
-0.23731914 0.15255328 0.70669997 4286217079
-0.24075329 0.15879664 0.70550001 4285822317
-0.23854826 0.15725546 0.70700002 4285888111
-0.24086666 0.16220824 0.70583338 4285559149
-0.23867829 0.16228747 0.708 4285559404
-0.35169855 0.16963792 0.70900005 4284639082
-0.24092333 0.16725163 0.70600003 4286677376
-0.23909718 0.16772543 0.708 4286611584
-0.35103714 0.17266373 0.70766664 4284573287
-0.34804821 0.1720131 0.7050001 4284507750
-0.24086665 0.17221604 0.70583338 4286019962
-0.23909718 0.17274505 0.708 4285888119
-0.35230643 0.17747606 0.70685714 4284441960
-0.34804821 0.17617841 0.70500004 4284310370
-0.23746237 0.1772728 0.70687497 4284902255
-0.23407754 0.17943792 0.708 4285100148
-0.23218767 0.18128359 0.70650005 4284902770
-0.22634907 0.1296066 0.71000004 4285296498
-0.23070571 0.13473524 0.7105 4288124824
-0.22820954 0.13259009 0.71057141 4286480257
-0.23175439 0.13788316 0.7105 4287861909
-0.22853591 0.13695915 0.71333337 4286612356
-0.23182836 0.1424652 0.711375 4287665047
-0.23232652 0.14715861 0.71142858 4287599253
-0.23346852 0.15252569 0.71125007 4287466891
-0.2360799 0.15818727 0.71025002 4285954162
-0.23346837 0.15705208 0.71271431 4286874753
-0.23637229 0.16285993 0.7105 4285559146
-0.23331173 0.16224562 0.71333337 4286348407
-0.35219458 0.16736025 0.71000004 4284179043
-0.23678926 0.1676247 0.71112502 4286480253
-0.23350196 0.16698124 0.71340001 4286611585
-0.35621029 0.17312251 0.71300006 4284310629
-0.35387254 0.17407203 0.71000004 4284310370
-0.23693234 0.17249054 0.7115556 4285296753
-0.23437387 0.17167792 0.71400005 4285624948
-0.23607428 0.17612067 0.71150005 4284639082
-0.23358464 0.17866719 0.71160007 4285165427
-0.23119217 0.18045169 0.71200001 4285034097
-0.22842127 0.13841358 0.71650004 4284506983
-0.23059635 0.14464174 0.71800005 4287994270
-0.22979343 0.14160229 0.7155 4288255902
-0.23164614 0.14846912 0.71600002 4287928219
-0.23207749 0.15298457 0.71733332 4287730065
-0.23245496 0.15747827 0.71850002 4287664526
-0.23229319 0.16245626 0.71800005 4287401099
-0.23253292 0.16816068 0.71700001 4286808709
-0.2330852 0.17269166 0.71671438 4284243296
-0.2325623 0.17745101 0.71687508 4284705134
-0.22995402 0.17977336 0.71600002 4285100148
-0.23017469 0.14374124 0.72200006 4285361782
-0.22953708 0.14164148 0.72000003 4284571239
-0.23109655 0.1470148 0.72133332 4287139475
-0.23209512 0.15241414 0.72266674 4287928474
-0.23241627 0.15775575 0.72366667 4287730835
-0.23209512 0.16265981 0.72266674 4287599764
-0.23145325 0.16805659 0.722 4287269516
-0.23086649 0.17262793 0.7215001 4285229933
-0.22910127 0.17493789 0.72400004 4284507496
-0.23088402 0.17640281 0.72066671 4284375655
